0 0 0 0 0 0 0 0 0 0 0 0 0 0 0 0 0 0 0 0 0 0 0 0 0 0 0 0 0 0 0 0 0 0 0 0 0 0 0 0 0 0 0 0 0 0 0 0 0 0 0 0 0 0 0 0 0 0 0 0 0 0 0 0 0 0 0 0 0 0 0 0 0 0 0 0 0 0 0 0 0 0 0 0 0 0 0 0 0 0 0 0 0 0 0 0 0 0 0 0 0 0 0 0 0 0 0 0 0 0 0 0 0 0 0 0 0 0 0 0 0 0 0 0 0 0 0 0 0 0 0 0 0 0 0 0 0 0 0 0 0 0 0 0 0 0 0 0 0 0 0 0 0 0 0 0 0 0 0 0 0 0 0 0 0 0 0 0 0 0 0 0 0 0 0 0 0 0 0 0 0 0 0 0 0 0 0 0 0 0 0 0 0 0 0 0 0 0 0 0 0 0 0 0 0 0 0 0 0 0 0 0 0 0 0 0 0 0 0 744 739 743 746 745 744 743 743 743 743 743 743 741 734 727 720 712 705 698 691 683 676 669 662 654 649 650 651 651 652 653 653 654 655 655 656 657 657 657 657 657 656 656 656 655 655 655 655 657 660 663 666 670 670 671 672 672 673 673 674 675 675 676 676 678 684 691 697 704 710 716 723 730 740 749 759 763 764 765 766 767 769 771 773 774 776 778 780 781 782 782 783 783 784 785 785 786 786 787 787 788 789 789 790 791 795 798 800 802 803 805 807 809 811 812 813 814 814 813 813 812 812 811 811 811 811 810 810 809 808 808 807 806 803 802 800 800 800 801 813 817 819 822 824 826 828 830 830 830 830 828 820 814 810 810 810 811 812 815 818 820 820 820 820 820 817 814 812 812 812 810 810 808 805 802 801 803 804 806 808 810 810 810 811 812 813 815 816 817 818 819 820 820 820 821 822 823 824 825 825 825 825 826 827 829 830 830 834 838 841 846 850 850 850 852 854 851 850 854 856 859 861 863 866 869 870 870 871 872 871 871 871 872 871 870 867 865 865 865 866 866 866 864 862 859 855 852 849 846 843 842 843 841 839 838 841 847 0 0 0 0 0 0 0 0 0 0 0 0 0 0 0 0 0 0 0 0
0 0 0 0 0 0 0 0 0 0 0 0 0 0 0 0 0 0 0 0 0 0 0 0 0 0 0 0 0 0 0 0 0 0 0 0 0 0 0 0 0 0 0 0 0 0 0 0 0 0 0 0 0 0 0 0 0 0 0 0 0 0 0 0 0 0 0 0 0 0 0 0 0 0 0 0 0 0 0 0 0 0 0 0 0 0 0 0 0 0 0 0 0 0 0 0 0 0 0 0 0 0 0 0 0 0 0 0 0 0 0 0 0 0 0 0 0 0 0 0 0 0 0 0 0 0 0 0 0 0 0 0 0 0 0 0 0 0 0 0 0 0 0 0 0 0 0 0 0 0 0 0 0 0 0 0 0 0 0 0 0 0 0 0 0 0 0 0 0 0 0 0 0 0 0 0 0 0 0 0 0 0 0 0 0 0 0 0 0 0 0 0 0 0 0 0 0 0 0 0 0 0 0 0 0 0 0 0 0 0 0 0 0 0 0 0 0 0 0 736 740 743 742 741 741 741 741 741 740 740 738 730 723 716 709 701 694 687 680 672 665 658 651 646 647 648 648 649 650 650 651 652 652 653 654 654 654 654 654 653 653 653 652 652 652 652 654 657 660 663 665 666 666 667 668 668 669 669 670 671 671 672 675 682 688 695 701 708 714 721 728 738 748 757 760 761 762 763 765 766 768 770 772 774 776 777 778 779 779 780 780 781 782 782 783 783 784 784 785 785 787 789 790 791 794 797 798 800 802 804 806 807 809 810 811 812 811 811 810 809 809 808 808 808 808 808 807 805 804 803 802 800 797 795 794 798 800 801 813 815 818 819 822 824 826 830 830 830 830 830 824 817 810 810 805 806 810 812 815 820 820 820 819 817 814 811 810 810 809 808 807 805 803 800 800 800 802 804 806 808 810 810 810 811 813 814 815 816 817 819 820 820 820 820 821 821 822 823 824 824 824 824 826 827 828 831 835 838 844 850 850 850 850 850 851 850 850 852 854 857 859 862 865 867 868 869 869 869 872 870 869 868 868 866 864 862 862 861 861 861 861 860 858 856 853 848 843 840 837 835 836 837 834 834 842 0 0 0 0 0 0 0 0 0 0 0 0 0 0 0 0 0 0 0 0 0
0 0 0 0 0 0 0 0 0 0 0 0 0 0 0 0 0 0 0 0 0 0 0 0 0 0 0 0 0 0 0 0 0 0 0 0 0 0 0 0 0 0 0 0 0 0 0 0 0 0 0 0 0 0 0 0 0 0 0 0 0 0 0 0 0 0 0 0 0 0 0 0 0 0 0 0 0 0 0 0 0 0 0 0 0 0 0 0 0 0 0 0 0 0 0 0 0 0 0 0 0 0 0 0 0 0 0 0 0 0 0 0 0 0 0 0 0 0 0 0 0 0 0 0 0 0 0 0 0 0 0 0 0 0 0 0 0 0 0 0 0 0 0 0 0 0 0 0 0 0 0 0 0 0 0 0 0 0 0 0 0 0 0 0 0 0 0 0 0 0 0 0 0 0 0 0 0 0 0 0 0 0 0 0 0 0 0 0 0 0 0 0 0 0 0 0 0 0 0 0 0 0 0 0 0 0 0 0 0 0 0 0 0 0 0 0 0 0 733 737 740 740 739 738 738 738 738 738 738 734 727 719 712 705 698 690 683 676 669 661 654 647 643 644 645 645 646 647 647 648 649 649 650 651 651 651 651 651 650 650 650 649 649 649 649 651 654 657 660 661 661 662 662 663 664 664 665 665 666 667 667 673 679 686 692 699 705 712 718 727 736 746 755 757 758 759 760 762 764 766 768 769 771 773 775 775 776 776 777 777 778 778 779 780 780 781 781 783 785 787 790 790 790 791 793 795 797 799 800 802 804 806 807 808 809 810 810 809 808 807 806 805 805 805 805 805 804 802 801 798 796 793 790 790 792 796 800 806 811 814 816 818 820 822 824 827 830 830 830 830 830 825 820 807 800 802 804 809 813 817 817 816 815 815 812 810 810 810 807 806 805 802 800 800 800 800 802 804 806 808 810 810 810 811 812 813 814 815 816 818 819 820 820 820 820 820 821 822 822 822 823 823 824 825 827 831 836 841 845 850 850 850 850 850 850 849 849 850 852 855 857 861 862 864 866 865 866 866 867 867 866 865 864 862 860 859 858 857 857 856 856 856 855 853 850 841 837 835 831 829 829 830 830 831 843 0 0 0 0 0 0 0 0 0 0 0 0 0 0 0 0 0 0 0 0 0
0 0 0 0 0 0 0 0 0 0 0 0 0 0 0 0 0 0 0 0 0 0 0 0 0 0 0 0 0 0 0 0 0 0 0 0 0 0 0 0 0 0 0 0 0 0 0 0 0 0 0 0 0 0 0 0 0 0 0 0 0 0 0 0 0 0 0 0 0 0 0 0 0 0 0 0 0 0 0 0 0 0 0 0 0 0 0 0 0 0 0 0 0 0 0 0 0 0 0 0 0 0 0 0 0 0 0 0 0 0 0 0 0 0 0 0 0 0 0 0 0 0 0 0 0 0 0 0 0 0 0 0 0 0 0 0 0 0 0 0 0 0 0 0 0 0 0 0 0 0 0 0 0 0 0 0 0 0 0 0 0 0 0 0 0 0 0 0 0 0 0 0 0 0 0 0 0 0 0 0 0 0 0 0 0 0 0 0 0 0 0 0 0 0 0 0 0 0 0 0 0 0 0 0 0 0 0 0 0 0 0 0 0 0 0 0 0 730 734 737 738 736 736 736 736 736 736 736 730 723 716 708 701 694 687 679 672 665 658 650 643 640 641 642 642 643 644 644 645 646 646 647 648 648 648 648 648 647 647 647 646 646 646 645 648 651 654 656 656 657 657 658 659 659 660 660 661 661 662 664 671 677 684 690 696 703 709 716 725 735 744 752 754 755 756 758 759 761 763 765 767 769 770 771 772 773 773 774 774 775 775 776 777 777 779 780 782 784 788 790 790 790 790 791 793 794 796 798 799 800 802 804 805 806 807 807 807 807 806 804 803 802 802 802 802 802 801 800 795 792 790 790 790 791 798 801 805 809 810 812 814 816 817 819 820 823 826 828 829 829 828 825 823 817 806 800 800 803 807 809 809 810 810 811 810 810 810 808 806 803 802 800 799 800 800 800 802 804 806 808 809 810 810 810 811 812 813 814 816 817 818 820 820 820 820 820 820 820 821 821 821 821 822 825 828 831 838 842 845 849 850 850 850 850 849 846 845 848 850 853 857 860 860 861 863 862 863 864 864 864 863 861 860 858 857 855 854 853 852 852 851 851 851 850 844 837 833 829 827 825 824 824 824 834 840 0 0 0 0 0 0 0 0 0 0 0 0 0 0 0 0 0 0 0 0 0
0 0 0 0 0 0 0 0 0 0 0 0 0 0 0 0 0 0 0 0 0 0 0 0 0 0 0 0 0 0 0 0 0 0 0 0 0 0 0 0 0 0 0 0 0 0 0 0 0 0 0 0 0 0 0 0 0 0 0 0 0 0 0 0 0 0 0 0 0 0 0 0 0 0 0 0 0 0 0 0 0 0 0 0 0 0 0 0 0 0 0 0 0 0 0 0 0 0 0 0 0 0 0 0 0 0 0 0 0 0 0 0 0 0 0 0 0 0 0 0 0 0 0 0 0 0 0 0 0 0 0 0 0 0 0 0 0 0 0 0 0 0 0 0 0 0 0 0 0 0 0 0 0 0 0 0 0 0 0 0 0 0 0 0 0 0 0 0 0 0 0 0 0 0 0 0 0 0 0 0 0 0 0 0 0 0 0 0 0 0 0 0 0 0 0 0 0 0 0 0 0 0 0 0 0 0 0 0 0 0 0 0 0 0 0 0 727 731 734 735 734 734 734 734 734 734 733 726 719 712 705 697 690 683 676 668 661 654 647 639 637 638 639 639 640 641 641 642 643 643 644 645 645 645 645 645 644 644 644 643 643 643 642 645 648 650 651 652 652 653 653 654 655 655 656 656 657 658 662 668 675 681 688 694 701 707 714 723 733 743 749 751 752 753 755 757 759 761 762 764 766 768 768 769 770 770 771 771 772 772 773 774 776 778 780 782 785 788 790 790 790 790 790 790 792 794 796 797 798 799 800 801 803 804 805 805 805 805 804 803 801 800 800 799 799 798 796 793 790 788 790 790 790 796 800 801 806 808 809 810 811 813 815 816 818 820 823 824 825 825 825 823 820 820 811 800 800 800 803 805 804 803 803 803 805 808 810 807 804 802 800 796 794 796 799 800 802 804 806 807 809 810 810 810 810 811 812 814 815 817 818 819 820 820 820 820 820 820 820 820 820 820 822 825 828 832 839 843 846 848 850 850 850 850 847 844 842 844 847 851 855 859 860 860 859 858 859 861 861 861 860 858 856 854 853 851 850 849 847 846 846 845 845 843 838 832 828 824 821 820 819 819 821 836 0 0 0 0 0 0 0 0 0 0 0 0 0 0 0 0 0 0 0 0 0 0
0 0 0 0 0 0 0 0 0 0 0 0 0 0 0 0 0 0 0 0 0 0 0 0 0 0 0 0 0 0 0 0 0 0 0 0 0 0 0 0 0 0 0 0 0 0 0 0 0 0 0 0 0 0 0 0 0 0 0 0 0 0 0 0 0 0 0 0 0 0 0 0 0 0 0 0 0 0 0 0 0 0 0 0 0 0 0 0 0 0 0 0 0 0 0 0 0 0 0 0 0 0 0 0 0 0 0 0 0 0 0 0 0 0 0 0 0 0 0 0 0 0 0 0 0 0 0 0 0 0 0 0 0 0 0 0 0 0 0 0 0 0 0 0 0 0 0 0 0 0 0 0 0 0 0 0 0 0 0 0 0 0 0 0 0 0 0 0 0 0 0 0 0 0 0 0 0 0 0 0 0 0 0 0 0 0 0 0 0 0 0 0 0 0 0 0 0 0 0 0 0 0 0 0 0 0 0 0 0 0 0 0 0 0 0 725 728 731 733 732 732 731 731 731 731 730 723 715 708 701 694 686 679 672 665 657 650 643 636 634 635 636 636 637 638 638 639 640 640 641 642 642 642 642 642 641 641 641 640 640 640 639 642 645 646 646 647 648 648 649 649 650 651 651 652 652 653 659 666 672 679 685 692 698 705 712 722 731 741 746 748 749 751 753 754 756 758 760 762 763 765 765 766 767 767 768 768 769 770 772 774 776 778 780 783 785 787 789 790 790 790 790 790 790 792 793 795 796 797 797 798 800 801 802 802 802 803 802 802 801 800 798 796 796 795 793 790 787 786 783 788 790 794 800 800 802 805 806 807 808 809 811 812 814 815 817 819 820 821 821 822 820 820 820 813 803 800 798 799 801 799 797 797 797 799 802 806 804 801 798 795 793 790 793 797 800 802 803 805 807 808 810 810 810 810 811 811 813 815 816 817 818 819 819 820 820 820 820 820 820 820 820 823 827 830 836 841 843 846 848 850 850 849 847 845 842 840 842 845 850 854 857 858 858 856 855 856 858 859 858 856 854 852 851 849 847 844 842 841 840 840 839 838 837 833 827 822 819 816 816 815 817 824 837 0 0 0 0 0 0 0 0 0 0 0 0 0 0 0 0 0 0 0 0 0 0
0 0 0 0 0 0 0 0 0 0 0 0 0 0 0 0 0 0 0 0 0 0 0 0 0 0 0 0 0 0 0 0 0 0 0 0 0 0 0 0 0 0 0 0 0 0 0 0 0 0 0 0 0 0 0 0 0 0 0 0 0 0 0 0 0 0 0 0 0 0 0 0 0 0 0 0 0 0 0 0 0 0 0 0 0 0 0 0 0 0 0 0 0 0 0 0 0 0 0 0 0 0 0 0 0 0 0 0 0 0 0 0 0 0 0 0 0 0 0 0 0 0 0 0 0 0 0 0 0 0 0 0 0 0 0 0 0 0 0 0 0 0 0 0 0 0 0 0 0 0 0 0 0 0 0 0 0 0 0 0 0 0 0 0 0 0 0 0 0 0 0 0 0 0 0 0 0 0 0 0 0 0 0 0 0 0 0 0 0 0 0 0 0 0 0 0 0 0 0 0 0 0 0 0 0 0 0 0 0 0 0 0 0 0 723 725 728 730 729 729 729 729 729 729 726 719 712 704 697 690 683 675 668 661 654 646 639 632 631 632 633 633 634 635 635 636 637 637 638 639 639 639 639 639 638 638 638 637 637 637 636 639 641 641 642 642 643 644 644 645 645 646 647 647 648 651 657 664 670 676 683 689 696 702 710 720 730 739 743 745 746 748 750 752 754 755 757 759 761 762 762 763 763 764 765 766 768 770 772 774 776 777 780 781 783 785 787 788 790 790 790 790 790 790 791 793 794 794 795 796 797 798 799 800 800 800 800 800 800 799 797 795 792 792 792 790 786 783 781 781 788 791 795 798 800 802 803 804 805 806 807 808 809 811 813 814 815 817 818 818 819 819 819 819 814 805 798 793 792 794 794 792 792 792 794 798 800 801 793 790 790 790 791 794 797 800 801 803 804 806 807 809 810 810 810 810 811 813 814 816 817 817 817 818 818 820 820 820 820 820 820 822 825 829 836 840 840 842 844 847 847 847 847 845 843 840 840 839 842 848 852 854 855 855 853 851 852 854 854 853 852 850 849 847 845 842 839 838 836 835 834 832 832 831 827 821 817 814 811 811 814 818 827 836 0 0 0 0 0 0 0 0 0 0 0 0 0 0 0 0 0 0 0 0 0 0
0 0 0 0 0 0 0 0 0 0 0 0 0 0 0 0 0 0 0 0 0 0 0 0 0 0 0 0 0 0 0 0 0 0 0 0 0 0 0 0 0 0 0 0 0 0 0 0 0 0 0 0 0 0 0 0 0 0 0 0 0 0 0 0 0 0 0 0 0 0 0 0 0 0 0 0 0 0 0 0 0 0 0 0 0 0 0 0 0 0 0 0 0 0 0 0 0 0 0 0 0 0 0 0 0 0 0 0 0 0 0 0 0 0 0 0 0 0 0 0 0 0 0 0 0 0 0 0 0 0 0 0 0 0 0 0 0 0 0 0 0 0 0 0 0 0 0 0 0 0 0 0 0 0 0 0 0 0 0 0 0 0 0 0 0 0 0 0 0 0 0 0 0 0 0 0 0 0 0 0 0 0 0 0 0 0 0 0 0 0 0 0 0 0 0 0 0 0 0 0 0 0 0 0 0 0 0 0 0 0 0 0 0 728 722 725 728 727 727 727 727 727 727 722 715 708 701 693 686 679 671 664 657 650 642 635 628 628 629 630 630 631 632 632 633 634 634 635 636 636 636 636 636 635 635 635 634 634 634 633 635 636 637 637 638 638 639 640 640 641 641 642 643 643 648 655 661 668 674 681 687 693 700 709 718 728 738 740 742 744 746 747 749 751 753 755 756 758 759 759 760 760 762 764 766 768 769 770 771 773 773 773 780 781 783 784 786 787 789 790 790 790 790 790 791 792 792 793 793 794 795 796 797 798 799 799 799 798 797 796 795 792 790 790 788 786 782 780 780 784 790 793 795 797 799 800 801 802 803 804 805 806 807 808 810 811 813 814 815 816 816 815 815 815 813 807 799 790 784 787 788 786 786 786 788 791 793 793 786 784 790 792 793 796 799 800 800 802 803 805 806 808 808 809 810 810 811 812 814 815 816 816 816 816 817 819 820 820 820 820 820 823 826 829 837 840 840 841 843 844 844 844 845 844 842 839 837 836 838 844 850 852 852 852 850 848 848 850 850 849 848 846 845 844 842 839 836 834 832 831 829 827 826 824 820 816 812 810 810 811 815 819 829 0 0 0 0 0 0 0 0 0 0 0 0 0 0 0 0 0 0 0 0 0 0 0
0 0 0 0 0 0 0 0 0 0 0 0 0 0 0 0 0 0 0 0 0 0 0 0 0 0 0 0 0 0 0 0 0 0 0 0 0 0 0 0 0 0 0 0 0 0 0 0 0 0 0 0 0 0 0 0 0 0 0 0 0 0 0 0 0 0 0 0 0 0 0 0 0 0 0 0 0 0 0 0 0 0 0 0 0 0 0 0 0 0 0 0 0 0 0 0 0 0 0 0 0 0 0 0 0 0 0 0 0 0 0 0 0 0 0 0 0 0 0 0 0 0 0 0 0 0 0 0 0 0 0 0 0 0 0 0 0 0 0 0 0 0 0 0 0 0 0 0 0 0 0 0 0 0 0 0 0 0 0 0 0 0 0 0 0 0 0 0 0 0 0 0 0 0 0 0 0 0 0 0 0 0 0 0 0 0 0 0 0 0 0 0 0 0 0 0 0 0 0 0 0 0 0 0 0 0 0 0 0 0 0 0 0 719 722 725 725 725 725 725 724 724 718 711 704 697 689 682 675 668 660 653 646 639 631 625 625 626 627 627 628 629 629 630 631 631 632 633 633 633 633 633 632 632 632 631 631 631 630 631 632 632 633 633 634 635 635 636 636 637 637 638 639 646 652 659 665 672 678 685 691 698 707 717 726 736 738 739 741 743 745 747 748 750 752 754 755 756 756 758 760 761 762 763 764 765 767 766 767 769 770 772 777 781 782 784 785 786 788 789 790 790 790 790 790 790 791 791 791 792 793 794 795 796 797 797 797 796 795 794 793 790 790 787 785 782 780 780 780 784 790 792 794 797 797 798 799 800 801 802 803 804 804 806 809 810 811 812 812 813 813 812 812 811 809 805 797 788 782 779 780 779 778 779 782 784 784 783 781 783 789 792 794 798 800 800 800 801 802 804 805 806 807 808 809 810 811 812 813 814 814 815 815 815 816 818 820 820 820 820 821 825 828 832 836 840 840 840 841 841 841 842 842 842 840 837 834 832 836 840 845 849 849 848 846 844 844 845 846 845 844 842 841 840 838 835 832 830 828 826 825 822 820 818 814 810 810 810 810 812 816 819 829 0 0 0 0 0 0 0 0 0 0 0 0 0 0 0 0 0 0 0 0 0 0 0
0 0 0 0 0 0 0 0 0 0 0 0 0 0 0 0 0 0 0 0 0 0 0 0 0 0 0 0 0 0 0 0 0 0 0 0 0 0 0 0 0 0 0 0 0 0 0 0 0 0 0 0 0 0 0 0 0 0 0 0 0 0 0 0 0 0 0 0 0 0 0 0 0 0 0 0 0 0 0 0 0 0 0 0 0 0 0 0 0 0 0 0 0 0 0 0 0 0 0 0 0 0 0 0 0 0 0 0 0 0 0 0 0 0 0 0 0 0 0 0 0 0 0 0 0 0 0 0 0 0 0 0 0 0 0 0 0 0 0 0 0 0 0 0 0 0 0 0 0 0 0 0 0 0 0 0 0 0 0 0 0 0 0 0 0 0 0 0 0 0 0 0 0 0 0 0 0 0 0 0 0 0 0 0 0 0 0 0 0 0 0 0 0 0 0 0 0 0 0 0 0 0 0 0 0 0 0 0 0 0 0 0 716 719 722 722 722 722 722 722 722 715 707 700 693 686 678 671 664 657 649 642 635 628 622 622 623 624 624 625 626 626 627 628 628 629 630 630 630 630 630 632 633 634 634 634 634 626 625 630 630 630 630 630 630 631 631 632 632 633 634 637 644 650 656 663 669 676 682 689 696 705 715 725 733 735 737 739 740 742 744 746 748 749 751 752 754 755 756 757 758 759 760 761 763 765 767 770 770 770 770 771 776 780 782 783 784 785 787 788 790 789 789 789 789 789 789 789 789 790 791 792 793 794 795 795 795 793 793 791 790 790 789 785 781 780 780 780 780 785 790 792 793 794 795 795 796 797 798 799 800 801 802 804 805 806 808 809 810 811 811 809 806 802 799 794 788 784 779 776 773 770 769 776 780 780 780 780 780 787 792 793 795 798 800 800 800 800 801 803 804 805 806 807 808 809 810 811 812 813 813 813 814 814 815 817 819 820 820 820 822 828 830 833 836 837 839 839 839 839 839 839 839 839 838 836 833 830 832 836 842 844 844 843 841 839 839 840 841 840 839 838 836 834 833 830 828 825 823 822 820 818 816 813 809 810 810 810 810 813 816 820 831 0 0 0 0 0 0 0 0 0 0 0 0 0 0 0 0 0 0 0 0 0 0 0
0 0 0 0 0 0 0 0 0 0 0 0 0 0 0 0 0 0 0 0 0 0 0 0 0 0 0 0 0 0 0 0 0 0 0 0 0 0 0 0 0 0 0 0 0 0 0 0 0 0 0 0 0 0 0 0 0 0 0 0 0 0 0 0 0 0 0 0 0 0 0 0 0 0 0 0 0 0 0 0 0 0 0 0 0 0 0 0 0 0 0 0 0 0 0 0 0 0 0 0 0 0 0 0 0 0 0 0 0 0 0 0 0 0 0 0 0 0 0 0 0 0 0 0 0 0 0 0 0 0 0 0 0 0 0 0 0 0 0 0 0 0 0 0 0 0 0 0 0 0 0 0 0 0 0 0 0 0 0 0 0 0 0 0 0 0 0 0 0 0 0 0 0 0 0 0 0 0 0 0 0 0 0 0 0 0 0 0 0 0 0 0 0 0 0 0 0 0 0 0 0 0 0 0 0 0 0 0 0 0 0 713 716 719 720 720 720 720 720 719 717 713 708 702 696 691 685 677 667 657 653 645 635 625 617 613 612 611 611 610 610 610 610 610 610 616 621 627 633 638 640 640 640 640 640 640 633 623 622 630 630 629 627 630 630 630 630 630 630 630 635 641 649 657 662 667 673 680 686 694 704 713 723 730 732 733 735 736 737 739 740 744 748 750 751 753 755 758 760 760 762 764 766 767 770 770 770 770 770 770 770 770 774 779 781 782 784 785 787 789 790 788 788 787 787 786 786 786 786 787 788 790 791 792 793 793 792 792 790 789 788 786 785 782 780 780 780 780 780 784 788 790 791 792 792 793 794 794 790 790 792 795 798 800 802 803 804 806 807 806 805 801 797 794 790 784 781 779 774 772 770 780 783 784 780 780 780 784 784 790 795 796 798 799 800 800 800 800 800 802 803 804 805 806 807 808 809 810 811 812 812 812 812 813 814 816 818 820 820 821 825 830 830 832 834 835 836 836 836 836 836 836 837 837 835 833 830 829 829 832 837 840 839 836 835 833 833 834 836 835 834 832 830 828 827 825 823 820 818 817 815 813 812 810 806 808 810 810 811 814 817 823 0 0 0 0 0 0 0 0 0 0 0 0 0 0 0 0 0 0 0 0 0 0 0 0
0 0 0 0 0 0 0 0 0 0 0 0 0 0 0 0 0 0 0 0 0 0 0 0 0 0 0 0 0 0 0 0 0 0 0 0 0 0 0 0 0 0 0 0 0 0 0 0 0 0 0 0 0 0 0 0 0 0 0 0 0 0 0 0 0 0 0 0 0 0 0 0 0 0 0 0 0 0 0 0 0 0 0 0 0 0 0 0 0 0 0 0 0 0 0 0 0 0 0 0 0 0 0 0 0 0 0 0 0 0 0 0 0 0 0 0 0 0 0 0 0 0 0 0 0 0 0 0 0 0 0 0 0 0 0 0 0 0 0 0 0 0 0 0 0 0 0 0 0 0 0 0 0 0 0 0 0 0 0 0 0 0 0 0 0 0 0 0 0 0 0 0 0 0 0 0 0 0 0 0 0 0 0 0 0 0 0 0 0 0 0 0 0 0 0 0 0 0 0 0 0 0 0 0 0 0 0 0 0 0 710 711 714 716 716 716 716 715 714 715 714 713 711 710 710 708 697 680 677 676 672 656 648 643 626 618 610 610 610 610 610 610 610 610 610 611 618 627 633 637 640 640 640 640 640 638 630 621 621 627 622 620 620 620 627 630 630 630 630 637 644 652 661 667 675 682 689 694 699 710 721 725 729 730 730 732 733 735 737 740 744 748 750 750 752 754 756 758 760 763 765 768 770 771 773 774 775 778 780 779 776 774 777 780 781 782 784 786 788 790 788 786 786 786 785 784 784 784 784 784 786 787 789 790 791 791 790 790 788 786 784 783 781 778 776 779 780 780 781 785 789 790 790 790 790 790 791 791 786 785 786 788 790 793 796 799 801 802 802 801 797 792 789 786 780 776 775 774 771 760 767 781 790 790 788 784 785 788 791 794 798 799 800 796 799 800 800 800 800 801 802 803 804 805 806 807 809 810 810 810 811 811 811 811 813 815 817 819 820 824 829 830 830 830 832 833 834 834 834 834 834 834 834 834 833 830 827 824 825 828 832 834 833 831 829 828 827 828 830 829 828 825 823 822 821 819 816 815 813 811 810 808 807 805 803 805 807 810 812 815 818 824 0 0 0 0 0 0 0 0 0 0 0 0 0 0 0 0 0 0 0 0 0 0 0 0
0 0 0 0 0 0 0 0 0 0 0 0 0 0 0 0 0 0 0 0 0 0 0 0 0 0 0 0 0 0 0 0 0 0 0 0 0 0 0 0 0 0 0 0 0 0 0 0 0 0 0 0 0 0 0 0 0 0 0 0 0 0 0 0 0 0 0 0 0 0 0 0 0 0 0 0 0 0 0 0 0 0 0 0 0 0 0 0 0 0 0 0 0 0 0 0 0 0 0 0 0 0 0 0 0 0 0 0 0 0 0 0 0 0 0 0 0 0 0 0 0 0 0 0 0 0 0 0 0 0 0 0 0 0 0 0 0 0 0 0 0 0 0 0 0 0 0 0 0 0 0 0 0 0 0 0 0 0 0 0 0 0 0 0 0 0 0 0 0 0 0 0 0 0 0 0 0 0 0 0 0 0 0 0 0 0 0 0 0 0 0 0 0 0 0 0 0 0 0 0 0 0 0 0 0 0 0 0 0 710 710 710 711 711 711 711 710 709 709 709 709 708 708 708 708 707 702 700 700 698 689 674 657 653 646 641 629 623 610 610 610 610 610 610 610 610 617 626 632 636 640 640 640 640 637 632 627 620 620 620 620 620 620 620 620 620 630 633 643 650 661 667 672 679 689 697 708 716 720 720 726 730 730 725 726 730 732 736 740 740 743 748 750 750 752 754 756 759 761 765 768 771 773 775 776 778 780 780 780 780 780 780 780 781 782 783 785 787 789 790 787 784 784 784 783 782 782 781 781 781 783 784 786 788 790 790 790 788 784 783 781 780 779 775 773 775 778 780 783 787 790 790 790 790 790 790 790 789 784 780 780 781 784 787 789 792 794 794 794 790 786 784 781 776 771 768 767 764 758 752 761 776 789 790 790 790 791 794 797 800 800 798 794 795 797 799 800 800 800 800 801 802 803 804 806 807 808 808 809 810 810 810 810 811 814 816 818 820 823 828 830 830 830 830 830 831 832 832 831 831 831 831 831 831 830 828 824 821 822 826 829 830 829 827 825 824 823 821 821 819 818 816 815 814 813 811 810 809 808 807 806 804 802 800 802 804 807 810 813 816 819 827 0 0 0 0 0 0 0 0 0 0 0 0 0 0 0 0 0 0 0 0 0 0 0 0
0 0 0 0 0 0 0 0 0 0 0 0 0 0 0 0 0 0 0 0 0 0 0 0 0 0 0 0 0 0 0 0 0 0 0 0 0 0 0 0 0 0 0 0 0 0 0 0 0 0 0 0 0 0 0 0 0 0 0 0 0 0 0 0 0 0 0 0 0 0 0 0 0 0 0 0 0 0 0 0 0 0 0 0 0 0 0 0 0 0 0 0 0 0 0 0 0 0 0 0 0 0 0 0 0 0 0 0 0 0 0 0 0 0 0 0 0 0 0 0 0 0 0 0 0 0 0 0 0 0 0 0 0 0 0 0 0 0 0 0 0 0 0 0 0 0 0 0 0 0 0 0 0 0 0 0 0 0 0 0 0 0 0 0 0 0 0 0 0 0 0 0 0 0 0 0 0 0 0 0 0 0 0 0 0 0 0 0 0 0 0 0 0 0 0 0 0 0 0 0 0 0 0 0 0 0 0 0 710 710 708 706 705 705 706 706 705 705 704 704 704 703 703 703 702 702 700 700 700 700 697 691 675 656 653 650 647 640 622 613 610 610 610 610 610 610 615 623 630 634 637 637 636 635 633 629 624 620 620 620 620 620 620 625 630 642 646 653 658 665 671 677 685 698 708 714 720 720 720 720 723 722 718 720 722 728 732 735 737 740 742 744 747 751 752 754 756 757 762 766 770 772 775 777 779 780 780 780 780 780 780 780 780 783 784 784 786 788 789 790 786 783 783 782 782 780 780 780 780 777 780 781 783 784 785 788 789 784 781 779 780 780 778 773 770 774 779 782 785 789 790 790 790 790 790 790 790 786 780 777 776 777 779 782 784 786 787 787 786 782 777 775 770 767 764 762 757 752 750 750 757 769 788 790 791 797 800 800 800 800 800 793 791 793 795 796 797 798 800 800 800 801 802 804 805 806 807 807 808 809 810 810 810 812 815 818 820 824 827 829 829 829 828 828 828 829 829 829 829 829 828 829 829 830 828 824 820 820 820 823 826 826 824 822 821 820 819 816 814 812 810 809 808 808 807 806 806 805 804 803 802 800 800 800 802 805 808 811 814 817 820 0 0 0 0 0 0 0 0 0 0 0 0 0 0 0 0 0 0 0 0 0 0 0 0 0
0 0 0 0 0 0 0 0 0 0 0 0 0 0 0 0 0 0 0 0 0 0 0 0 0 0 0 0 0 0 0 0 0 0 0 0 0 0 0 0 0 0 0 0 0 0 0 0 0 0 0 0 0 0 0 0 0 0 0 0 0 0 0 0 0 0 0 0 0 0 0 0 0 0 0 0 0 0 0 0 0 0 0 0 0 0 0 0 0 0 0 0 0 0 0 0 0 0 0 0 0 0 0 0 0 0 0 0 0 0 0 0 0 0 0 0 0 0 0 0 0 0 0 0 0 0 0 0 0 0 0 0 0 0 0 0 0 0 0 0 0 0 0 0 0 0 0 0 0 0 0 0 0 0 0 0 0 0 0 0 0 0 0 0 0 0 0 0 0 0 0 0 0 0 0 0 0 0 0 0 0 0 0 0 0 0 0 0 0 0 0 0 0 0 0 0 0 0 0 0 0 0 0 0 0 0 0 0 708 707 704 701 699 700 700 700 701 700 700 699 699 698 698 698 697 697 698 700 700 700 698 694 687 660 656 651 646 641 629 618 612 610 610 610 610 610 614 622 627 630 632 631 630 629 628 627 623 620 620 620 620 628 641 645 653 657 662 669 675 680 686 697 703 710 715 720 720 720 720 720 720 717 714 715 722 727 730 732 733 733 735 738 742 746 750 751 753 756 761 765 769 771 775 779 780 780 780 780 780 780 780 780 780 784 786 787 787 788 790 788 785 781 781 781 780 780 780 780 779 774 773 776 778 780 781 784 783 779 777 775 774 774 772 770 771 776 780 783 786 790 790 790 790 790 790 790 787 783 778 775 772 773 775 777 780 782 782 781 779 776 770 767 765 762 759 756 752 750 750 750 755 765 777 787 793 798 800 800 800 800 796 790 790 792 793 794 794 795 797 800 800 801 802 803 804 805 805 805 806 808 810 810 810 815 817 820 821 823 825 827 827 826 826 825 826 826 827 827 827 826 826 826 826 827 825 820 817 817 817 819 821 820 818 817 816 815 813 810 808 807 805 804 803 803 802 802 801 801 800 799 798 800 800 800 803 806 809 812 815 818 820 0 0 0 0 0 0 0 0 0 0 0 0 0 0 0 0 0 0 0 0 0 0 0 0 0
0 0 0 0 0 0 0 0 0 0 0 0 0 0 0 0 0 0 0 0 0 0 0 0 0 0 0 0 0 0 0 0 0 0 0 0 0 0 0 0 0 0 0 0 0 0 0 0 0 0 0 0 0 0 0 0 0 0 0 0 0 0 0 0 0 0 0 0 0 0 0 0 0 0 0 0 0 0 0 0 0 0 0 0 0 0 0 0 0 0 0 0 0 0 0 0 0 0 0 0 0 0 0 0 0 0 0 0 0 0 0 0 0 0 0 0 0 0 0 0 0 0 0 0 0 0 0 0 0 0 0 0 0 0 0 0 0 0 0 0 0 0 0 0 0 0 0 0 0 0 0 0 0 0 0 0 0 0 0 0 0 0 0 0 0 0 0 0 0 0 0 0 0 0 0 0 0 0 0 0 0 0 0 0 0 0 0 0 0 0 0 0 0 0 0 0 0 0 0 0 0 0 0 0 0 0 0 0 704 702 699 698 696 696 696 696 696 696 695 695 695 694 693 693 693 694 695 696 698 697 696 693 688 667 656 651 649 645 639 629 614 610 610 609 609 608 612 620 623 626 626 623 620 619 620 622 620 620 620 620 627 642 649 658 666 674 680 686 692 700 705 708 711 714 719 720 720 720 720 720 718 713 710 713 719 722 724 726 727 727 728 730 733 737 742 745 748 751 757 762 765 769 772 775 779 780 780 780 780 780 780 780 780 784 788 789 789 789 790 787 784 782 780 780 780 780 780 780 777 774 772 770 772 774 776 780 780 775 772 771 769 768 770 770 772 778 782 784 787 789 790 790 790 790 790 788 784 780 776 773 770 770 771 773 776 777 777 775 773 770 766 762 759 757 753 749 750 750 750 750 755 759 765 777 790 794 799 800 798 791 786 787 788 790 791 791 790 793 796 799 800 800 801 802 803 804 804 804 805 807 809 810 813 818 820 820 820 821 823 825 825 824 823 823 823 824 824 825 824 824 824 823 824 824 822 819 815 813 815 816 817 816 814 812 811 809 808 806 804 802 800 799 799 799 799 798 798 797 796 794 795 797 800 804 807 809 811 814 817 820 822 0 0 0 0 0 0 0 0 0 0 0 0 0 0 0 0 0 0 0 0 0 0 0 0 0
0 0 0 0 0 0 0 0 0 0 0 0 0 0 0 0 0 0 0 0 0 0 0 0 0 0 0 0 0 0 0 0 0 0 0 0 0 0 0 0 0 0 0 0 0 0 0 0 0 0 0 0 0 0 0 0 0 0 0 0 0 0 0 0 0 0 0 0 0 0 0 0 0 0 0 0 0 0 0 0 0 0 0 0 0 0 0 0 0 0 0 0 0 0 0 0 0 0 0 0 0 0 0 0 0 0 0 0 0 0 0 0 0 0 0 0 0 0 0 0 0 0 0 0 0 0 0 0 0 0 0 0 0 0 0 0 0 0 0 0 0 0 0 0 0 0 0 0 0 0 0 0 0 0 0 0 0 0 0 0 0 0 0 0 0 0 0 0 0 0 0 0 0 0 0 0 0 0 0 0 0 0 0 0 0 0 0 0 0 0 0 0 0 0 0 0 0 0 0 0 0 0 0 0 0 0 0 0 699 697 695 694 692 692 693 693 692 692 692 690 690 690 689 688 689 690 691 693 694 694 693 691 683 672 658 654 650 648 635 626 612 608 606 606 605 607 609 616 620 621 621 616 611 610 611 615 615 620 620 626 640 650 659 670 678 685 692 698 703 708 711 714 716 719 720 720 720 720 720 720 716 711 710 709 713 716 717 718 720 721 723 724 726 728 734 736 739 743 747 753 759 762 765 771 774 776 779 780 780 780 780 780 781 785 788 790 790 790 790 790 790 790 789 788 787 786 784 783 781 778 776 773 770 770 770 773 774 770 768 766 765 765 768 770 775 780 782 785 787 789 790 790 790 790 789 785 781 777 774 770 768 766 767 769 771 772 772 770 767 764 761 756 752 749 749 748 747 748 749 750 753 757 763 771 779 783 785 784 782 780 780 782 785 787 789 790 790 793 795 798 800 800 800 801 802 802 802 802 804 806 807 810 815 820 820 820 820 820 821 822 822 822 821 820 821 821 822 822 822 822 821 821 821 820 820 819 814 810 812 813 813 812 809 807 805 805 803 802 800 798 797 797 797 797 797 795 795 794 792 790 794 798 803 808 811 812 813 815 817 820 0 0 0 0 0 0 0 0 0 0 0 0 0 0 0 0 0 0 0 0 0 0 0 0 0 0
0 0 0 0 0 0 0 0 0 0 0 0 0 0 0 0 0 0 0 0 0 0 0 0 0 0 0 0 0 0 0 0 0 0 0 0 0 0 0 0 0 0 0 0 0 0 0 0 0 0 0 0 0 0 0 0 0 0 0 0 0 0 0 0 0 0 0 0 0 0 0 0 0 0 0 0 0 0 0 0 0 0 0 0 0 0 0 0 0 0 0 0 0 0 0 0 0 0 0 0 0 0 0 0 0 0 0 0 0 0 0 0 0 0 0 0 0 0 0 0 0 0 0 0 0 0 0 0 0 0 0 0 0 0 0 0 0 0 0 0 0 0 0 0 0 0 0 0 0 0 0 0 0 0 0 0 0 0 0 0 0 0 0 0 0 0 0 0 0 0 0 0 0 0 0 0 0 0 0 0 0 0 0 0 0 0 0 0 0 0 0 0 0 0 0 0 0 0 0 0 0 0 0 0 0 0 0 0 695 693 691 690 689 688 689 689 688 688 688 686 686 687 685 684 684 686 688 690 691 691 690 687 681 673 664 658 651 644 626 618 610 607 604 602 603 605 607 610 614 617 616 610 610 610 611 613 614 617 620 636 646 655 664 676 685 692 698 703 708 712 715 717 720 720 719 718 717 716 716 716 714 710 704 704 707 710 712 713 714 716 718 719 720 722 725 728 730 735 739 744 749 752 756 761 766 770 772 774 776 780 780 779 779 781 786 790 790 790 790 790 792 792 792 792 792 791 789 787 784 782 779 776 773 770 767 766 767 764 763 762 761 763 766 770 776 781 782 784 786 787 789 789 789 788 785 782 778 775 771 768 765 763 763 765 765 765 764 763 761 758 756 751 749 747 746 745 745 745 746 748 751 756 762 768 774 777 778 778 778 779 780 780 782 785 786 789 790 793 795 797 798 799 800 800 801 801 800 801 803 805 807 810 817 820 820 820 820 820 820 820 820 819 819 818 818 819 820 820 820 820 819 818 818 818 819 816 813 810 810 810 810 806 803 801 800 799 799 799 797 796 795 794 795 795 794 793 792 791 790 791 797 801 807 812 814 816 816 817 819 820 0 0 0 0 0 0 0 0 0 0 0 0 0 0 0 0 0 0 0 0 0 0 0 0 0 0
0 0 0 0 0 0 0 0 0 0 0 0 0 0 0 0 0 0 0 0 0 0 0 0 0 0 0 0 0 0 0 0 0 0 0 0 0 0 0 0 0 0 0 0 0 0 0 0 0 0 0 0 0 0 0 0 0 0 0 0 0 0 0 0 0 0 0 0 0 0 0 0 0 0 0 0 0 0 0 0 0 0 0 0 0 0 0 0 0 0 0 0 0 0 0 0 0 0 0 0 0 0 0 0 0 0 0 0 0 0 0 0 0 0 0 0 0 0 0 0 0 0 0 0 0 0 0 0 0 0 0 0 0 0 0 0 0 0 0 0 0 0 0 0 0 0 0 0 0 0 0 0 0 0 0 0 0 0 0 0 0 0 0 0 0 0 0 0 0 0 0 0 0 0 0 0 0 0 0 0 0 0 0 0 0 0 0 0 0 0 0 0 0 0 0 0 0 0 0 0 0 0 0 0 0 0 0 0 691 690 688 686 684 682 684 684 684 683 682 681 682 682 682 680 680 681 684 687 687 687 686 684 680 675 670 666 659 651 633 620 612 608 604 601 600 602 605 608 610 612 611 610 610 610 616 620 620 622 628 642 650 658 670 680 687 695 702 707 712 716 719 720 719 715 713 711 711 710 711 711 710 706 700 700 704 706 707 708 709 711 712 713 713 716 718 720 723 725 729 732 737 742 747 751 755 758 762 766 768 769 771 772 774 776 778 784 790 790 790 791 794 795 795 795 794 793 791 789 787 784 782 780 776 772 763 760 759 760 760 760 760 764 768 772 778 780 781 782 784 786 786 786 786 785 782 779 776 772 769 766 763 760 760 762 762 759 754 751 749 751 750 747 746 745 743 742 742 743 746 748 751 756 761 768 772 774 775 775 776 777 778 779 780 782 784 787 790 792 793 795 796 796 797 798 800 800 800 801 803 805 808 810 816 820 819 820 820 820 820 819 818 817 816 816 816 816 817 818 818 817 816 815 815 815 814 813 810 807 803 802 804 801 798 797 796 796 796 795 794 793 792 792 793 793 792 791 790 790 790 794 801 806 811 814 817 819 820 820 822 0 0 0 0 0 0 0 0 0 0 0 0 0 0 0 0 0 0 0 0 0 0 0 0 0 0 0
0 0 0 0 0 0 0 0 0 0 0 0 0 0 0 0 0 0 0 0 0 0 0 0 0 0 0 0 0 0 0 0 0 0 0 0 0 0 0 0 0 0 0 0 0 0 0 0 0 0 0 0 0 0 0 0 0 0 0 0 0 0 0 0 0 0 0 0 0 0 0 0 0 0 0 0 0 0 0 0 0 0 0 0 0 0 0 0 0 0 0 0 0 0 0 0 0 0 0 0 0 0 0 0 0 0 0 0 0 0 0 0 0 0 0 0 0 0 0 0 0 0 0 0 0 0 0 0 0 0 0 0 0 0 0 0 0 0 0 0 0 0 0 0 0 0 0 0 0 0 0 0 0 0 0 0 0 0 0 0 0 0 0 0 0 0 0 0 0 0 0 0 0 0 0 0 0 0 0 0 0 0 0 0 0 0 0 0 0 0 0 0 0 0 0 0 0 0 0 0 0 0 0 0 0 0 0 704 688 686 685 683 680 679 679 680 680 679 678 677 678 679 678 676 676 679 681 683 683 682 682 680 679 674 670 670 670 665 661 653 630 611 606 602 600 600 603 605 607 607 606 609 610 613 618 620 623 627 635 648 654 662 675 684 691 698 705 710 715 719 720 718 714 709 707 706 706 706 707 708 708 702 695 695 700 702 702 703 705 706 707 708 708 710 713 715 717 718 720 723 725 729 734 741 745 749 752 756 761 763 764 765 768 771 774 777 782 789 790 792 795 797 797 797 797 795 793 791 789 786 784 781 779 773 764 760 756 760 760 762 765 768 773 778 780 780 780 781 783 784 784 784 783 782 779 776 773 769 766 763 760 758 756 757 757 750 746 743 742 742 743 742 743 743 741 740 741 744 746 748 751 756 762 767 770 771 772 773 774 775 777 779 780 781 784 786 788 790 791 793 793 794 794 795 799 800 800 802 805 807 810 810 812 817 817 817 817 817 817 817 815 814 814 813 813 813 814 815 815 814 813 812 812 811 810 809 807 804 801 800 799 797 795 793 793 792 792 792 791 790 790 790 791 791 790 790 790 790 791 798 804 809 815 818 820 824 826 827 822 0 0 0 0 0 0 0 0 0 0 0 0 0 0 0 0 0 0 0 0 0 0 0 0 0 0 0
0 0 0 0 0 0 0 0 0 0 0 0 0 0 0 0 0 0 0 0 0 0 0 0 0 0 0 0 0 0 0 0 0 0 0 0 0 0 0 0 0 0 0 0 0 0 0 0 0 0 0 0 0 0 0 0 0 0 0 0 0 0 0 0 0 0 0 0 0 0 0 0 0 0 0 0 0 0 0 0 0 0 0 0 0 0 0 0 0 0 0 0 0 0 0 0 0 0 0 0 0 0 0 0 0 0 0 0 0 0 0 0 0 0 0 0 0 0 0 0 0 0 0 0 0 0 0 0 0 0 0 0 0 0 0 0 0 0 0 0 0 0 0 0 0 0 0 0 0 0 0 0 0 0 0 0 0 0 0 0 0 0 0 0 0 0 0 0 0 0 0 0 0 0 0 0 0 0 0 0 0 0 0 0 0 0 0 0 0 0 0 0 0 0 0 0 0 0 0 0 0 0 0 0 0 0 0 694 684 683 681 680 677 673 675 676 676 675 675 673 674 675 674 672 673 677 679 679 678 678 678 678 675 671 670 670 670 666 661 660 653 623 609 605 601 600 600 602 603 603 602 606 611 614 618 621 626 631 644 653 658 668 680 687 694 701 707 712 716 720 720 716 710 705 701 700 701 702 703 704 704 700 692 690 693 696 697 698 700 702 703 704 704 706 708 709 711 713 715 717 719 722 725 731 734 738 742 745 749 753 756 759 761 765 769 772 776 783 789 793 796 800 800 800 799 797 794 791 789 786 784 783 781 774 765 757 753 758 762 767 770 775 780 780 780 780 780 780 781 782 781 781 780 778 775 772 769 767 764 760 757 754 752 752 750 745 742 740 740 740 740 740 740 740 740 740 742 745 747 749 753 758 762 766 767 769 770 772 774 775 777 779 780 782 784 786 788 789 790 790 791 791 791 794 799 800 802 805 806 809 810 810 810 814 815 814 814 814 814 814 813 812 811 811 811 811 811 813 813 812 811 810 808 808 807 806 804 801 797 796 795 794 791 790 789 789 789 789 788 788 789 790 790 790 790 790 790 790 795 803 810 812 818 826 830 830 830 826 0 0 0 0 0 0 0 0 0 0 0 0 0 0 0 0 0 0 0 0 0 0 0 0 0 0 0 0
0 0 0 0 0 0 0 0 0 0 0 0 0 0 0 0 0 0 0 0 0 0 0 0 0 0 0 0 0 0 0 0 0 0 0 0 0 0 0 0 0 0 0 0 0 0 0 0 0 0 0 0 0 0 0 0 0 0 0 0 0 0 0 0 0 0 0 0 0 0 0 0 0 0 0 0 0 0 0 0 0 0 0 0 0 0 0 0 0 0 0 0 0 0 0 0 0 0 0 0 0 0 0 0 0 0 0 0 0 0 0 0 0 0 0 0 0 0 0 0 0 0 0 0 0 0 0 0 0 0 0 0 0 0 0 0 0 0 0 0 0 0 0 0 0 0 0 0 0 0 0 0 0 0 0 0 0 0 0 0 0 0 0 0 0 0 0 0 0 0 0 0 0 0 0 0 0 0 0 0 0 0 0 0 0 0 0 0 0 0 0 0 0 0 0 0 0 0 0 0 0 0 0 0 0 0 0 681 680 679 677 676 674 670 671 672 672 671 671 670 670 671 670 670 670 673 675 675 675 674 674 674 672 670 670 670 670 666 661 660 660 639 616 608 604 601 600 600 600 600 601 606 611 616 620 624 629 640 652 656 664 675 683 690 697 702 707 712 716 720 720 715 708 702 700 700 700 699 699 699 700 698 694 690 690 689 692 693 695 697 699 700 700 702 703 705 707 709 711 713 715 717 719 721 725 728 732 736 741 745 747 750 754 758 762 766 771 776 782 788 794 799 796 800 800 798 795 791 789 787 785 783 781 776 765 757 750 758 765 770 776 780 780 780 780 780 780 780 780 779 778 777 775 773 770 769 766 764 761 758 755 751 748 746 743 740 740 740 740 740 740 740 740 740 740 740 743 746 749 752 755 759 762 764 766 768 770 772 773 775 777 779 781 783 784 785 787 788 789 790 790 790 790 796 799 805 810 810 810 810 810 810 810 810 812 811 811 811 811 810 810 809 808 807 807 807 809 810 810 809 807 806 805 804 803 802 800 798 794 792 792 790 789 787 787 787 787 787 786 786 786 786 786 790 790 790 790 794 799 807 811 816 825 830 830 830 830 824 0 0 0 0 0 0 0 0 0 0 0 0 0 0 0 0 0 0 0 0 0 0 0 0 0 0 0 0
0 0 0 0 0 0 0 0 0 0 0 0 0 0 0 0 0 0 0 0 0 0 0 0 0 0 0 0 0 0 0 0 0 0 0 0 0 0 0 0 0 0 0 0 0 0 0 0 0 0 0 0 0 0 0 0 0 0 0 0 0 0 0 0 0 0 0 0 0 0 0 0 0 0 0 0 0 0 0 0 0 0 0 0 0 0 0 0 0 0 0 0 0 0 0 0 0 0 0 0 0 0 0 0 0 0 0 0 0 0 0 0 0 0 0 0 0 0 0 0 0 0 0 0 0 0 0 0 0 0 0 0 0 0 0 0 0 0 0 0 0 0 0 0 0 0 0 0 0 0 0 0 0 0 0 0 0 0 0 0 0 0 0 0 0 0 0 0 0 0 0 0 0 0 0 0 0 0 0 0 0 0 0 0 0 0 0 0 0 0 0 0 0 0 0 0 0 0 0 0 0 0 0 0 0 0 0 680 675 674 673 671 670 669 669 668 667 667 668 667 666 666 666 668 670 670 671 671 671 670 670 670 670 670 669 670 669 665 661 660 657 649 623 610 607 604 601 600 600 600 603 607 612 619 623 627 635 651 656 660 670 680 686 692 699 703 707 711 716 720 719 713 707 701 700 699 698 697 696 696 696 695 692 690 683 684 687 689 690 692 694 695 696 698 698 700 702 704 707 709 710 712 714 716 718 721 724 728 732 737 739 743 747 751 755 760 765 771 776 782 787 792 793 800 800 799 795 791 788 787 785 783 781 775 766 756 750 759 767 773 779 780 780 780 780 780 780 779 776 774 773 772 770 768 767 766 763 761 759 756 753 749 744 740 739 738 738 740 740 740 740 740 740 740 740 741 744 747 750 753 756 759 761 763 765 768 770 771 773 775 777 779 781 782 784 785 786 787 788 790 790 790 791 800 807 810 810 810 810 810 810 810 810 810 810 808 807 807 806 806 807 806 804 803 803 804 805 806 807 805 804 803 801 800 799 798 797 795 792 790 788 787 786 785 785 785 785 785 784 784 783 783 782 786 790 791 794 798 804 810 815 819 830 830 830 830 826 824 0 0 0 0 0 0 0 0 0 0 0 0 0 0 0 0 0 0 0 0 0 0 0 0 0 0 0 0
0 0 0 0 0 0 0 0 0 0 0 0 0 0 0 0 0 0 0 0 0 0 0 0 0 0 0 0 0 0 0 0 0 0 0 0 0 0 0 0 0 0 0 0 0 0 0 0 0 0 0 0 0 0 0 0 0 0 0 0 0 0 0 0 0 0 0 0 0 0 0 0 0 0 0 0 0 0 0 0 0 0 0 0 0 0 0 0 0 0 0 0 0 0 0 0 0 0 0 0 0 0 0 0 0 0 0 0 0 0 0 0 0 0 0 0 0 0 0 0 0 0 0 0 0 0 0 0 0 0 0 0 0 0 0 0 0 0 0 0 0 0 0 0 0 0 0 0 0 0 0 0 0 0 0 0 0 0 0 0 0 0 0 0 0 0 0 0 0 0 0 0 0 0 0 0 0 0 0 0 0 0 0 0 0 0 0 0 0 0 0 0 0 0 0 0 0 0 0 0 0 0 0 0 0 0 0 680 671 670 669 667 665 665 665 664 663 663 663 663 662 661 662 664 668 669 668 667 667 667 667 667 667 666 665 666 666 664 660 656 652 646 628 617 609 605 601 600 600 600 604 608 617 625 627 631 644 653 659 666 676 683 688 693 698 703 707 710 715 717 716 712 706 700 698 697 696 695 694 693 692 691 690 688 680 680 683 685 687 688 689 690 692 694 695 696 698 701 703 704 706 708 710 711 713 715 718 723 725 728 731 736 740 743 747 751 757 764 771 776 782 785 788 795 800 797 794 790 788 786 784 783 781 774 766 756 750 760 768 774 780 780 780 780 780 780 778 774 771 769 768 767 766 765 764 763 761 760 758 755 751 747 742 740 737 736 736 738 739 740 740 740 740 740 740 742 746 749 751 754 756 759 761 763 766 768 770 770 772 774 776 778 780 782 783 784 785 786 788 790 790 790 798 804 809 810 810 810 810 810 810 810 810 810 808 805 803 802 802 802 803 802 801 799 799 800 801 802 802 801 800 799 798 796 795 794 793 792 790 786 784 784 783 783 782 783 783 783 783 782 781 780 781 785 789 794 798 802 806 812 816 826 830 830 830 830 828 0 0 0 0 0 0 0 0 0 0 0 0 0 0 0 0 0 0 0 0 0 0 0 0 0 0 0 0 0
0 0 0 0 0 0 0 0 0 0 0 0 0 0 0 0 0 0 0 0 0 0 0 0 0 0 0 0 0 0 0 0 0 0 0 0 0 0 0 0 0 0 0 0 0 0 0 0 0 0 0 0 0 0 0 0 0 0 0 0 0 0 0 0 0 0 0 0 0 0 0 0 0 0 0 0 0 0 0 0 0 0 0 0 0 0 0 0 0 0 0 0 0 0 0 0 0 0 0 0 0 0 0 0 0 0 0 0 0 0 0 0 0 0 0 0 0 0 0 0 0 0 0 0 0 0 0 0 0 0 0 0 0 0 0 0 0 0 0 0 0 0 0 0 0 0 0 0 0 0 0 0 0 0 0 0 0 0 0 0 0 0 0 0 0 0 0 0 0 0 0 0 0 0 0 0 0 0 0 0 0 0 0 0 0 0 0 0 0 0 0 0 0 0 0 0 0 0 0 0 0 0 0 0 0 0 0 679 667 666 665 664 661 661 661 660 659 659 659 659 658 657 659 662 664 665 664 664 664 664 664 664 663 662 661 662 662 661 658 654 649 640 628 617 609 606 602 600 600 600 604 610 625 632 632 640 648 656 663 670 679 685 690 695 700 702 706 710 713 713 712 712 706 700 698 696 695 693 692 690 690 690 689 684 680 680 680 681 682 684 685 686 688 690 691 692 694 697 698 700 702 704 705 707 708 710 712 716 719 721 724 728 732 736 739 743 748 754 763 768 775 779 780 784 787 791 790 790 787 785 784 782 780 772 764 755 750 760 767 774 780 780 780 780 780 778 775 770 768 765 763 763 761 761 761 760 760 760 756 753 750 748 742 738 736 734 734 736 737 739 740 740 740 740 740 745 749 751 753 755 757 760 762 764 766 768 770 770 771 773 775 778 780 781 782 783 784 786 787 789 790 796 803 807 810 810 810 810 810 810 810 810 810 810 806 802 799 798 798 798 799 798 797 795 795 796 797 797 797 796 796 794 793 792 791 790 789 788 786 783 781 780 780 780 780 781 781 781 781 780 780 780 782 786 790 797 801 805 809 814 818 828 830 830 830 826 827 0 0 0 0 0 0 0 0 0 0 0 0 0 0 0 0 0 0 0 0 0 0 0 0 0 0 0 0 0
0 0 0 0 0 0 0 0 0 0 0 0 0 0 0 0 0 0 0 0 0 0 0 0 0 0 0 0 0 0 0 0 0 0 0 0 0 0 0 0 0 0 0 0 0 0 0 0 0 0 0 0 0 0 0 0 0 0 0 0 0 0 0 0 0 0 0 0 0 0 0 0 0 0 0 0 0 0 0 0 0 0 0 0 0 0 0 0 0 0 0 0 0 0 0 0 0 0 0 0 0 0 0 0 0 0 0 0 0 0 0 0 0 0 0 0 0 0 0 0 0 0 0 0 0 0 0 0 0 0 0 0 0 0 0 0 0 0 0 0 0 0 0 0 0 0 0 0 0 0 0 0 0 0 0 0 0 0 0 0 0 0 0 0 0 0 0 0 0 0 0 0 0 0 0 0 0 0 0 0 0 0 0 0 0 0 0 0 0 0 0 0 0 0 0 0 0 0 0 0 0 0 0 0 0 0 0 679 663 662 662 661 659 658 658 656 656 656 656 655 654 654 656 660 660 662 661 660 660 660 660 660 660 659 658 658 659 659 655 650 645 637 625 614 607 604 600 600 600 600 604 616 629 634 640 645 651 659 665 673 681 686 691 695 699 701 705 709 710 710 710 710 705 699 697 695 694 692 690 690 690 690 687 682 680 680 680 680 680 680 681 681 683 684 685 688 689 692 694 696 698 700 701 703 705 706 708 710 713 715 718 722 725 728 731 735 739 744 750 758 764 771 773 776 779 781 785 787 784 784 782 781 778 769 762 754 750 759 766 772 776 780 779 779 778 775 772 768 765 760 760 759 758 757 758 758 759 757 753 751 749 746 742 738 735 732 732 734 735 737 738 740 740 741 746 750 751 753 754 756 758 760 762 764 765 767 769 770 772 774 775 777 779 780 781 782 784 785 787 789 793 801 806 810 810 810 810 810 810 810 810 810 810 806 801 798 796 794 794 794 794 794 792 791 791 793 793 793 793 792 791 790 789 788 787 786 785 784 782 781 779 777 777 777 776 778 780 780 780 780 780 781 785 789 794 800 804 807 811 815 820 827 830 830 830 831 0 0 0 0 0 0 0 0 0 0 0 0 0 0 0 0 0 0 0 0 0 0 0 0 0 0 0 0 0 0
0 0 0 0 0 0 0 0 0 0 0 0 0 0 0 0 0 0 0 0 0 0 0 0 0 0 0 0 0 0 0 0 0 0 0 0 0 0 0 0 0 0 0 0 0 0 0 0 0 0 0 0 0 0 0 0 0 0 0 0 0 0 0 0 0 0 0 0 0 0 0 0 0 0 0 0 0 0 0 0 0 0 0 0 0 0 0 0 0 0 0 0 0 0 0 0 0 0 0 0 0 0 0 0 0 0 0 0 0 0 0 0 0 0 0 0 0 0 0 0 0 0 0 0 0 0 0 0 0 0 0 0 0 0 0 0 0 0 0 0 0 0 0 0 0 0 0 0 0 0 0 0 0 0 0 0 0 0 0 0 0 0 0 0 0 0 0 0 0 0 0 0 0 0 0 0 0 0 0 0 0 0 0 0 0 0 0 0 0 0 0 0 0 0 0 0 0 0 0 0 0 0 0 0 0 0 0 679 659 658 657 654 652 654 653 653 652 652 652 652 650 651 654 657 659 659 658 657 657 658 657 657 657 656 656 655 656 655 653 648 643 637 624 610 605 601 600 600 600 600 604 617 630 635 641 647 654 661 667 675 681 686 691 694 697 700 704 707 710 710 710 710 702 698 695 693 692 690 691 693 691 690 685 680 679 679 679 680 680 680 680 680 679 680 681 683 685 687 689 691 692 694 696 699 701 702 704 706 708 710 713 716 718 721 725 728 732 737 743 747 752 758 763 767 771 772 774 777 780 780 780 778 773 767 761 753 750 757 764 770 775 777 777 776 775 772 768 764 762 759 757 756 755 754 754 755 756 754 750 747 745 742 739 736 733 730 731 732 734 735 737 739 740 745 750 751 753 754 755 757 758 760 762 764 765 767 769 770 772 774 775 777 778 779 780 781 783 785 788 790 798 804 808 810 810 810 810 810 810 808 807 806 803 799 797 794 792 790 790 790 790 789 788 786 787 788 789 789 788 787 786 785 784 783 783 782 781 780 779 778 777 776 774 773 773 774 775 779 780 780 781 784 788 793 798 804 808 810 813 816 821 827 830 830 828 829 0 0 0 0 0 0 0 0 0 0 0 0 0 0 0 0 0 0 0 0 0 0 0 0 0 0 0 0 0 0
0 0 0 0 0 0 0 0 0 0 0 0 0 0 0 0 0 0 0 0 0 0 0 0 0 0 0 0 0 0 0 0 0 0 0 0 0 0 0 0 0 0 0 0 0 0 0 0 0 0 0 0 0 0 0 0 0 0 0 0 0 0 0 0 0 0 0 0 0 0 0 0 0 0 0 0 0 0 0 0 0 0 0 0 0 0 0 0 0 0 0 0 0 0 0 0 0 0 0 0 0 0 0 0 0 0 0 0 0 0 0 0 0 0 0 0 0 0 0 0 0 0 0 0 0 0 0 0 0 0 0 0 0 0 0 0 0 0 0 0 0 0 0 0 0 0 0 0 0 0 0 0 0 0 0 0 0 0 0 0 0 0 0 0 0 0 0 0 0 0 0 0 0 0 0 0 0 0 0 0 0 0 0 0 0 0 0 0 0 0 0 0 0 0 0 0 0 0 0 0 0 0 0 0 0 0 0 679 653 652 651 650 650 650 649 648 648 648 648 648 649 650 653 655 655 655 655 654 654 655 654 654 654 653 653 652 652 652 650 645 640 634 624 609 604 600 600 600 600 600 604 615 628 634 639 642 655 662 669 675 681 686 690 693 696 699 702 705 708 710 710 709 701 695 693 691 690 692 694 695 694 692 687 680 678 676 677 677 678 679 679 678 677 678 678 679 680 682 684 686 687 689 692 693 695 697 700 702 704 706 708 710 712 715 719 722 726 729 734 739 743 748 752 757 762 764 768 771 774 776 775 774 771 764 759 750 750 753 761 769 773 774 775 773 772 768 764 760 758 755 753 752 752 751 751 751 752 750 749 746 743 740 737 734 731 730 732 734 735 737 738 740 742 747 750 752 753 755 756 758 759 760 761 763 765 767 768 770 772 774 775 776 777 778 780 780 782 785 787 794 801 804 806 806 805 805 804 803 802 801 800 799 797 795 792 790 788 786 785 785 784 783 782 782 782 784 785 784 783 782 780 780 780 779 779 778 778 777 776 775 775 774 772 771 770 770 772 777 780 782 784 787 791 797 803 807 812 814 816 819 820 826 830 830 835 0 0 0 0 0 0 0 0 0 0 0 0 0 0 0 0 0 0 0 0 0 0 0 0 0 0 0 0 0 0 0
0 0 0 0 0 0 0 0 0 0 0 0 0 0 0 0 0 0 0 0 0 0 0 0 0 0 0 0 0 0 0 0 0 0 0 0 0 0 0 0 0 0 0 0 0 0 0 0 0 0 0 0 0 0 0 0 0 0 0 0 0 0 0 0 0 0 0 0 0 0 0 0 0 0 0 0 0 0 0 0 0 0 0 0 0 0 0 0 0 0 0 0 0 0 0 0 0 0 0 0 0 0 0 0 0 0 0 0 0 0 0 0 0 0 0 0 0 0 0 0 0 0 0 0 0 0 0 0 0 0 0 0 0 0 0 0 0 0 0 0 0 0 0 0 0 0 0 0 0 0 0 0 0 0 0 0 0 0 0 0 0 0 0 0 0 0 0 0 0 0 0 0 0 0 0 0 0 0 0 0 0 0 0 0 0 0 0 0 0 0 0 0 0 0 0 0 0 0 0 0 0 0 0 0 0 0 0 678 647 646 645 644 645 646 645 644 644 644 644 644 645 648 650 652 652 651 651 651 652 652 651 650 650 650 650 649 648 648 646 642 637 633 624 609 603 600 600 600 600 600 604 613 625 632 635 638 653 663 671 676 682 687 690 693 696 698 700 702 705 707 708 705 699 693 690 690 692 694 696 697 697 694 689 681 677 674 674 675 675 676 677 676 676 676 676 677 678 679 679 680 682 684 687 688 690 691 694 697 699 702 703 705 707 709 713 716 720 723 726 732 732 738 741 747 752 756 760 762 765 767 768 768 768 761 755 750 750 751 759 766 770 771 772 771 768 764 760 757 753 750 749 748 747 748 747 748 749 749 747 744 741 740 736 733 730 731 733 735 737 738 740 741 745 749 750 750 752 754 755 757 759 760 760 762 764 766 768 770 772 773 774 775 776 778 779 780 780 784 788 796 800 801 803 802 800 799 798 797 796 796 795 794 792 790 788 786 784 783 780 779 779 778 777 777 777 779 780 780 779 778 777 777 776 776 776 775 774 774 773 772 772 771 771 770 770 772 774 779 782 785 787 790 795 801 808 812 816 819 820 820 820 826 830 832 831 0 0 0 0 0 0 0 0 0 0 0 0 0 0 0 0 0 0 0 0 0 0 0 0 0 0 0 0 0 0 0
0 0 0 0 0 0 0 0 0 0 0 0 0 0 0 0 0 0 0 0 0 0 0 0 0 0 0 0 0 0 0 0 0 0 0 0 0 0 0 0 0 0 0 0 0 0 0 0 0 0 0 0 0 0 0 0 0 0 0 0 0 0 0 0 0 0 0 0 0 0 0 0 0 0 0 0 0 0 0 0 0 0 0 0 0 0 0 0 0 0 0 0 0 0 0 0 0 0 0 0 0 0 0 0 0 0 0 0 0 0 0 0 0 0 0 0 0 0 0 0 0 0 0 0 0 0 0 0 0 0 0 0 0 0 0 0 0 0 0 0 0 0 0 0 0 0 0 0 0 0 0 0 0 0 0 0 0 0 0 0 0 0 0 0 0 0 0 0 0 0 0 0 0 0 0 0 0 0 0 0 0 0 0 0 0 0 0 0 0 0 0 0 0 0 0 0 0 0 0 0 0 0 0 0 0 0 0 678 640 640 640 640 642 642 641 640 639 640 640 640 640 645 650 650 649 648 648 649 650 649 647 647 647 646 646 646 644 644 643 640 635 630 624 609 603 600 600 600 600 600 603 612 621 628 633 637 652 663 671 677 682 687 690 692 694 696 697 699 701 703 704 701 695 690 690 690 693 695 698 700 699 695 692 684 678 673 671 672 673 673 674 674 674 674 674 675 676 677 678 679 680 680 682 685 687 689 689 691 693 696 698 700 703 705 707 709 712 716 721 723 725 728 730 735 741 746 748 750 752 754 756 757 758 752 748 745 747 750 757 764 770 770 769 767 762 760 756 753 749 745 741 740 740 742 743 745 746 747 744 742 740 738 734 731 730 732 734 736 738 740 742 744 746 749 750 750 750 752 754 755 757 760 760 762 764 766 768 770 771 772 773 774 775 777 779 780 780 785 790 797 800 800 800 798 796 794 793 792 792 791 790 789 788 786 785 783 781 779 776 775 774 773 772 772 772 774 775 775 775 774 774 773 773 773 773 772 771 771 770 770 770 770 770 770 771 774 777 780 783 787 790 794 800 809 813 817 820 824 825 825 825 827 830 838 0 0 0 0 0 0 0 0 0 0 0 0 0 0 0 0 0 0 0 0 0 0 0 0 0 0 0 0 0 0 0 0
0 0 0 0 0 0 0 0 0 0 0 0 0 0 0 0 0 0 0 0 0 0 0 0 0 0 0 0 0 0 0 0 0 0 0 0 0 0 0 0 0 0 0 0 0 0 0 0 0 0 0 0 0 0 0 0 0 0 0 0 0 0 0 0 0 0 0 0 0 0 0 0 0 0 0 0 0 0 0 0 0 0 0 0 0 0 0 0 0 0 0 0 0 0 0 0 0 0 0 0 0 0 0 0 0 0 0 0 0 0 0 0 0 0 0 0 0 0 0 0 0 0 0 0 0 0 0 0 0 0 0 0 0 0 0 0 0 0 0 0 0 0 0 0 0 0 0 0 0 0 0 0 0 0 0 0 0 0 0 0 0 0 0 0 0 0 0 0 0 0 0 0 0 0 0 0 0 0 0 0 0 0 0 0 0 0 0 0 0 0 0 0 0 0 0 0 0 0 0 0 0 0 0 0 0 0 0 678 629 630 636 640 640 639 638 637 636 636 637 637 639 642 648 648 647 646 645 645 645 645 644 643 643 643 643 642 641 640 640 638 633 628 623 615 606 600 600 600 600 600 603 612 621 627 633 639 653 663 671 678 683 686 689 690 692 693 694 696 697 699 699 698 693 690 690 690 692 695 698 700 700 696 693 689 682 676 670 670 670 670 672 672 672 672 672 673 675 675 676 678 680 680 681 683 685 687 688 689 690 692 695 697 698 700 702 705 707 710 715 719 720 722 724 726 729 734 737 740 741 743 744 745 744 742 739 740 744 751 758 761 765 762 758 760 757 754 751 748 743 739 737 737 737 738 740 742 744 744 743 740 738 735 732 730 730 733 735 737 740 742 743 745 747 750 750 750 750 750 752 753 756 759 760 762 764 766 767 769 770 771 772 773 774 776 779 780 786 790 795 800 800 799 796 794 791 790 789 789 788 788 787 786 785 783 781 779 776 774 772 770 769 769 768 768 769 769 770 771 771 770 770 770 770 770 769 769 769 768 768 769 770 770 770 770 773 776 779 783 786 790 794 798 807 813 817 821 825 828 830 830 830 830 835 834 0 0 0 0 0 0 0 0 0 0 0 0 0 0 0 0 0 0 0 0 0 0 0 0 0 0 0 0 0 0 0 0
0 0 0 0 0 0 0 0 0 0 0 0 0 0 0 0 0 0 0 0 0 0 0 0 0 0 0 0 0 0 0 0 0 0 0 0 0 0 0 0 0 0 0 0 0 0 0 0 0 0 0 0 0 0 0 0 0 0 0 0 0 0 0 0 0 0 0 0 0 0 0 0 0 0 0 0 0 0 0 0 0 0 0 0 0 0 0 0 0 0 0 0 0 0 0 0 0 0 0 0 0 0 0 0 0 0 0 0 0 0 0 0 0 0 0 0 0 0 0 0 0 0 0 0 0 0 0 0 0 0 0 0 0 0 0 0 0 0 0 0 0 0 0 0 0 0 0 0 0 0 0 0 0 0 0 0 0 0 0 0 0 0 0 0 0 0 0 0 0 0 0 0 0 0 0 0 0 0 0 0 0 0 0 0 0 0 0 0 0 0 0 0 0 0 0 0 0 0 0 0 0 0 0 0 0 0 0 678 620 625 631 635 636 635 634 633 633 633 633 634 637 641 644 645 644 643 642 641 641 641 640 640 640 639 639 639 638 637 637 636 633 628 621 616 608 600 600 600 600 600 603 611 621 626 633 643 655 665 673 678 682 684 686 687 689 690 691 692 693 694 695 694 690 689 688 688 691 695 698 700 699 696 694 690 685 678 670 666 667 668 670 670 670 670 670 672 673 673 674 677 680 680 680 682 684 685 686 687 689 690 691 692 693 695 698 701 702 706 709 712 713 716 718 721 724 726 728 730 732 734 733 734 734 733 734 736 743 751 757 760 760 756 751 749 750 749 746 742 738 735 734 734 735 736 739 740 742 742 741 739 736 734 730 730 730 733 736 739 740 741 743 745 747 749 750 750 750 750 750 752 755 759 761 763 764 766 768 769 770 770 771 772 774 777 780 788 790 790 791 796 797 794 791 790 788 787 787 786 785 785 784 783 782 780 776 774 772 769 768 767 766 766 765 766 766 766 767 767 767 767 767 767 767 767 767 767 766 766 766 767 769 770 770 771 775 778 782 786 789 794 798 804 811 817 821 825 829 831 833 833 834 834 841 0 0 0 0 0 0 0 0 0 0 0 0 0 0 0 0 0 0 0 0 0 0 0 0 0 0 0 0 0 0 0 0 0
0 0 0 0 0 0 0 0 0 0 0 0 0 0 0 0 0 0 0 0 0 0 0 0 0 0 0 0 0 0 0 0 0 0 0 0 0 0 0 0 0 0 0 0 0 0 0 0 0 0 0 0 0 0 0 0 0 0 0 0 0 0 0 0 0 0 0 0 0 0 0 0 0 0 0 0 0 0 0 0 0 0 0 0 0 0 0 0 0 0 0 0 0 0 0 0 0 0 0 0 0 0 0 0 0 0 0 0 0 0 0 0 0 0 0 0 0 0 0 0 0 0 0 0 0 0 0 0 0 0 0 0 0 0 0 0 0 0 0 0 0 0 0 0 0 0 0 0 0 0 0 0 0 0 0 0 0 0 0 0 0 0 0 0 0 0 0 0 0 0 0 0 0 0 0 0 0 0 0 0 0 0 0 0 0 0 0 0 0 0 0 0 0 0 0 0 0 0 0 0 0 0 0 0 0 0 0 678 620 620 623 629 631 631 630 630 629 630 630 631 634 639 641 642 641 640 639 637 637 637 636 636 635 635 635 635 635 634 634 633 631 628 620 615 609 600 600 600 600 600 602 609 622 627 634 646 658 666 673 680 680 681 683 684 685 686 686 687 689 690 691 691 688 684 684 687 691 694 696 697 696 694 693 690 684 675 664 662 663 665 666 668 668 669 669 670 671 671 673 675 677 680 680 681 682 683 684 685 687 688 688 689 689 690 693 696 698 700 704 706 708 712 714 716 718 721 723 725 726 726 725 726 726 726 725 732 738 750 756 760 758 750 745 742 742 743 741 737 734 731 730 731 733 735 737 739 740 740 739 737 735 733 730 730 730 733 736 740 740 740 741 743 745 747 749 750 750 750 750 751 755 760 761 763 765 766 767 769 770 770 770 771 774 777 783 790 790 790 790 792 793 790 788 787 786 785 784 783 782 782 781 780 778 775 772 769 767 765 764 763 763 762 762 763 763 763 764 764 763 763 764 764 764 764 764 764 764 764 764 765 767 768 769 772 776 780 785 789 793 798 804 811 815 820 824 828 831 833 835 836 838 839 836 0 0 0 0 0 0 0 0 0 0 0 0 0 0 0 0 0 0 0 0 0 0 0 0 0 0 0 0 0 0 0 0 0
0 0 0 0 0 0 0 0 0 0 0 0 0 0 0 0 0 0 0 0 0 0 0 0 0 0 0 0 0 0 0 0 0 0 0 0 0 0 0 0 0 0 0 0 0 0 0 0 0 0 0 0 0 0 0 0 0 0 0 0 0 0 0 0 0 0 0 0 0 0 0 0 0 0 0 0 0 0 0 0 0 0 0 0 0 0 0 0 0 0 0 0 0 0 0 0 0 0 0 0 0 0 0 0 0 0 0 0 0 0 0 0 0 0 0 0 0 0 0 0 0 0 0 0 0 0 0 0 0 0 0 0 0 0 0 0 0 0 0 0 0 0 0 0 0 0 0 0 0 0 0 0 0 0 0 0 0 0 0 0 0 0 0 0 0 0 0 0 0 0 0 0 0 0 0 0 0 0 0 0 0 0 0 0 0 0 0 0 0 0 0 0 0 0 0 0 0 0 0 0 0 0 0 0 0 0 0 677 624 620 620 620 621 627 625 626 626 626 627 629 632 637 639 639 638 636 635 634 633 633 632 632 631 631 631 632 631 630 630 630 630 626 621 616 610 600 600 600 600 600 600 608 623 629 637 647 657 666 673 680 680 680 680 681 681 681 681 682 684 686 687 687 682 680 682 686 690 692 694 694 692 691 690 688 681 670 660 660 660 661 664 665 666 666 667 668 669 669 670 671 673 676 678 679 680 681 682 683 684 686 686 687 687 688 690 692 694 697 699 701 704 707 709 710 713 716 718 720 721 721 719 718 720 720 720 725 735 745 753 756 751 745 739 737 737 737 735 732 730 730 730 730 731 734 736 737 738 737 737 736 734 732 730 730 730 733 736 740 740 740 740 742 744 743 744 745 746 748 750 751 755 760 761 763 764 765 767 768 768 770 770 770 774 779 787 790 790 790 790 790 789 787 785 784 783 782 782 781 780 779 777 776 774 771 767 764 761 760 760 760 759 759 760 760 760 760 760 760 760 760 760 761 761 761 761 762 762 762 762 764 766 768 770 773 777 782 788 793 797 804 811 815 819 822 826 830 833 836 838 839 841 845 0 0 0 0 0 0 0 0 0 0 0 0 0 0 0 0 0 0 0 0 0 0 0 0 0 0 0 0 0 0 0 0 0 0
0 0 0 0 0 0 0 0 0 0 0 0 0 0 0 0 0 0 0 0 0 0 0 0 0 0 0 0 0 0 0 0 0 0 0 0 0 0 0 0 0 0 0 0 0 0 0 0 0 0 0 0 0 0 0 0 0 0 0 0 0 0 0 0 0 0 0 0 0 0 0 0 0 0 0 0 0 0 0 0 0 0 0 0 0 0 0 0 0 0 0 0 0 0 0 0 0 0 0 0 0 0 0 0 0 0 0 0 0 0 0 0 0 0 0 0 0 0 0 0 0 0 0 0 0 0 0 0 0 0 0 0 0 0 0 0 0 0 0 0 0 0 0 0 0 0 0 0 0 0 0 0 0 0 0 0 0 0 0 0 0 0 0 0 0 0 0 0 0 0 0 0 0 0 0 0 0 0 0 0 0 0 0 0 0 0 0 0 0 0 0 0 0 0 0 0 0 0 0 0 0 0 0 0 0 0 0 677 629 620 620 620 620 620 622 623 623 622 624 628 631 634 635 634 632 631 631 630 629 629 628 628 628 628 628 628 628 627 627 627 627 624 622 616 609 601 600 600 600 599 599 607 621 628 637 647 657 665 672 677 680 680 680 678 677 677 678 678 679 681 683 683 679 678 680 684 689 690 691 690 689 687 687 683 676 663 660 660 660 660 661 662 663 664 665 665 666 667 668 668 670 672 673 675 677 678 679 680 682 683 684 685 685 687 688 690 691 694 696 697 699 701 703 705 709 711 713 714 715 715 714 710 709 710 712 720 730 743 750 751 746 740 735 732 732 732 730 729 729 730 730 730 730 732 734 735 735 735 734 734 733 731 728 727 727 731 735 739 740 740 740 740 741 740 740 740 741 745 750 753 756 759 760 762 763 764 765 766 767 769 770 771 776 781 790 790 790 790 790 789 786 783 781 781 780 779 779 778 777 776 774 773 770 767 763 759 758 758 757 757 757 756 757 757 757 757 756 755 754 754 755 756 760 760 760 760 760 760 763 765 767 769 772 775 779 787 792 796 802 812 816 820 822 824 828 831 834 837 840 843 845 839 0 0 0 0 0 0 0 0 0 0 0 0 0 0 0 0 0 0 0 0 0 0 0 0 0 0 0 0 0 0 0 0 0 0
0 0 0 0 0 0 0 0 0 0 0 0 0 0 0 0 0 0 0 0 0 0 0 0 0 0 0 0 0 0 0 0 0 0 0 0 0 0 0 0 0 0 0 0 0 0 0 0 0 0 0 0 0 0 0 0 0 0 0 0 0 0 0 0 0 0 0 0 0 0 0 0 0 0 0 0 0 0 0 0 0 0 0 0 0 0 0 0 0 0 0 0 0 0 0 0 0 0 0 0 0 0 0 0 0 0 0 0 0 0 0 0 0 0 0 0 0 0 0 0 0 0 0 0 0 0 0 0 0 0 0 0 0 0 0 0 0 0 0 0 0 0 0 0 0 0 0 0 0 0 0 0 0 0 0 0 0 0 0 0 0 0 0 0 0 0 0 0 0 0 0 0 0 0 0 0 0 0 0 0 0 0 0 0 0 0 0 0 0 0 0 0 0 0 0 0 0 0 0 0 0 0 0 0 0 0 0 677 647 629 620 620 620 620 620 620 620 620 623 627 630 631 632 629 627 627 627 627 627 627 626 625 625 624 624 624 624 624 624 624 623 622 620 615 608 601 597 596 594 597 599 606 615 627 637 646 656 663 669 674 676 677 676 675 673 673 674 675 676 677 679 679 675 673 678 682 686 686 686 685 684 682 680 674 667 660 660 660 660 659 660 660 661 661 662 663 664 665 665 666 668 669 670 670 673 675 676 678 680 681 682 683 683 685 686 688 690 691 693 695 697 698 699 701 703 706 707 708 710 710 709 705 703 704 709 718 727 737 744 745 740 735 730 728 728 727 730 727 727 728 729 730 730 731 733 733 733 732 732 732 731 730 726 722 724 729 733 737 739 740 738 734 736 740 740 740 743 748 752 754 756 758 760 761 762 763 764 765 766 768 769 771 776 784 790 790 790 790 790 786 783 780 779 778 778 777 776 776 774 773 771 768 765 762 759 757 755 755 755 755 754 753 753 754 753 753 751 750 750 750 751 755 760 760 760 760 761 764 766 768 770 772 775 779 783 790 795 799 809 815 820 822 824 827 829 833 836 839 843 846 848 0 0 0 0 0 0 0 0 0 0 0 0 0 0 0 0 0 0 0 0 0 0 0 0 0 0 0 0 0 0 0 0 0 0 0
0 0 0 0 0 0 0 0 0 0 0 0 0 0 0 0 0 0 0 0 0 0 0 0 0 0 0 0 0 0 0 0 0 0 0 0 0 0 0 0 0 0 0 0 0 0 0 0 0 0 0 0 0 0 0 0 0 0 0 0 0 0 0 0 0 0 0 0 0 0 0 0 0 0 0 0 0 0 0 0 0 0 0 0 0 0 0 0 0 0 0 0 0 0 0 0 0 0 0 0 0 0 0 0 0 0 0 0 0 0 0 0 0 0 0 0 0 0 0 0 0 0 0 0 0 0 0 0 0 0 0 0 0 0 0 0 0 0 0 0 0 0 0 0 0 0 0 0 0 0 0 0 0 0 0 0 0 0 0 0 0 0 0 0 0 0 0 0 0 0 0 0 0 0 0 0 0 0 0 0 0 0 0 0 0 0 0 0 0 0 0 0 0 0 0 0 0 0 0 0 0 0 0 0 0 0 0 677 656 647 626 620 620 620 618 616 617 619 623 627 630 630 628 625 623 623 623 624 624 624 623 622 622 621 621 621 621 621 621 621 620 617 614 610 606 600 593 591 594 596 599 604 613 625 637 645 654 662 667 670 672 672 671 670 669 670 671 671 671 672 674 674 671 670 675 680 681 681 680 679 679 677 673 667 661 658 658 658 657 657 658 658 659 660 660 661 662 663 663 664 666 667 668 668 670 672 674 676 677 679 680 681 682 683 685 686 687 689 691 692 694 695 696 697 699 700 701 703 706 707 704 700 700 700 708 720 726 733 738 738 735 731 726 723 724 727 730 725 724 725 726 727 730 730 731 731 731 729 729 730 729 727 725 721 720 725 731 733 735 734 730 730 734 740 741 744 747 750 752 754 756 758 759 760 761 762 763 764 765 767 768 772 781 786 790 790 790 790 787 782 779 778 776 776 775 774 774 773 772 769 766 762 759 757 754 753 752 752 752 752 752 751 750 750 750 750 750 750 750 750 753 757 760 761 762 764 766 768 771 772 774 776 778 783 788 793 797 802 808 815 820 823 826 828 831 835 838 842 845 849 841 0 0 0 0 0 0 0 0 0 0 0 0 0 0 0 0 0 0 0 0 0 0 0 0 0 0 0 0 0 0 0 0 0 0 0
0 0 0 0 0 0 0 0 0 0 0 0 0 0 0 0 0 0 0 0 0 0 0 0 0 0 0 0 0 0 0 0 0 0 0 0 0 0 0 0 0 0 0 0 0 0 0 0 0 0 0 0 0 0 0 0 0 0 0 0 0 0 0 0 0 0 0 0 0 0 0 0 0 0 0 0 0 0 0 0 0 0 0 0 0 0 0 0 0 0 0 0 0 0 0 0 0 0 0 0 0 0 0 0 0 0 0 0 0 0 0 0 0 0 0 0 0 0 0 0 0 0 0 0 0 0 0 0 0 0 0 0 0 0 0 0 0 0 0 0 0 0 0 0 0 0 0 0 0 0 0 0 0 0 0 0 0 0 0 0 0 0 0 0 0 0 0 0 0 0 0 0 0 0 0 0 0 0 0 0 0 0 0 0 0 0 0 0 0 0 0 0 0 0 0 0 0 0 0 0 0 0 0 0 0 0 0 676 657 646 631 624 620 618 615 612 614 618 622 626 630 626 623 621 620 620 620 621 621 622 621 620 620 619 618 618 617 617 618 619 616 613 609 606 603 596 590 592 594 596 598 601 612 623 636 644 652 660 664 667 667 665 664 663 663 664 665 666 667 667 669 669 669 669 671 675 676 676 675 674 673 672 669 664 659 656 655 655 655 656 656 658 658 659 659 660 660 661 661 662 664 665 666 667 669 670 672 674 675 677 678 679 680 681 682 683 684 686 688 690 691 693 693 693 694 696 697 699 702 701 700 696 699 702 713 720 724 729 732 731 727 723 719 720 722 727 730 726 723 722 723 726 726 726 727 728 726 724 722 723 725 725 722 720 720 723 728 730 730 730 730 734 739 741 743 746 749 751 753 754 756 757 758 759 760 761 761 763 764 766 768 772 781 790 790 790 790 789 785 780 778 776 775 773 773 772 771 771 768 763 758 753 751 750 749 749 749 749 750 748 746 745 747 750 750 750 750 750 751 754 758 761 763 764 766 767 769 771 774 775 777 779 783 789 793 797 801 804 807 813 820 822 826 830 833 837 841 844 848 850 0 0 0 0 0 0 0 0 0 0 0 0 0 0 0 0 0 0 0 0 0 0 0 0 0 0 0 0 0 0 0 0 0 0 0 0
0 0 0 0 0 0 0 0 0 0 0 0 0 0 0 0 0 0 0 0 0 0 0 0 0 0 0 0 0 0 0 0 0 0 0 0 0 0 0 0 0 0 0 0 0 0 0 0 0 0 0 0 0 0 0 0 0 0 0 0 0 0 0 0 0 0 0 0 0 0 0 0 0 0 0 0 0 0 0 0 0 0 0 0 0 0 0 0 0 0 0 0 0 0 0 0 0 0 0 0 0 0 0 0 0 0 0 0 0 0 0 0 0 0 0 0 0 0 0 0 0 0 0 0 0 0 0 0 0 0 0 0 0 0 0 0 0 0 0 0 0 0 0 0 0 0 0 0 0 0 0 0 0 0 0 0 0 0 0 0 0 0 0 0 0 0 0 0 0 0 0 0 0 0 0 0 0 0 0 0 0 0 0 0 0 0 0 0 0 0 0 0 0 0 0 0 0 0 0 0 0 0 0 0 0 0 0 676 656 648 634 628 623 619 615 611 610 616 621 625 625 623 619 618 617 619 620 620 620 620 620 620 619 618 616 616 614 613 613 614 612 610 606 603 600 592 590 591 594 596 598 600 612 622 636 644 651 660 662 663 661 659 659 658 658 658 660 660 662 663 664 664 664 665 668 670 671 671 671 669 668 666 664 661 657 654 653 653 654 655 656 657 657 658 658 658 659 659 660 661 662 663 663 665 667 669 670 672 673 674 676 677 678 679 680 680 682 684 687 687 688 690 690 690 690 691 692 695 697 700 700 694 694 702 708 717 717 719 721 721 719 717 716 719 722 727 730 727 721 720 720 719 719 718 719 719 719 720 720 720 722 722 720 720 720 720 723 728 730 731 735 740 741 743 745 747 749 751 752 754 755 756 757 758 759 760 760 762 764 766 768 771 780 789 790 790 789 786 783 779 776 774 772 771 770 769 768 766 763 757 749 748 747 747 746 746 745 744 745 742 740 743 746 750 750 750 750 753 756 759 762 764 766 768 769 771 773 775 777 779 782 786 791 795 799 801 802 805 808 810 817 822 826 830 834 839 843 846 850 844 0 0 0 0 0 0 0 0 0 0 0 0 0 0 0 0 0 0 0 0 0 0 0 0 0 0 0 0 0 0 0 0 0 0 0 0
0 0 0 0 0 0 0 0 0 0 0 0 0 0 0 0 0 0 0 0 0 0 0 0 0 0 0 0 0 0 0 0 0 0 0 0 0 0 0 0 0 0 0 0 0 0 0 0 0 0 0 0 0 0 0 0 0 0 0 0 0 0 0 0 0 0 0 0 0 0 0 0 0 0 0 0 0 0 0 0 0 0 0 0 0 0 0 0 0 0 0 0 0 0 0 0 0 0 0 0 0 0 0 0 0 0 0 0 0 0 0 0 0 0 0 0 0 0 0 0 0 0 0 0 0 0 0 0 0 0 0 0 0 0 0 0 0 0 0 0 0 0 0 0 0 0 0 0 0 0 0 0 0 0 0 0 0 0 0 0 0 0 0 0 0 0 0 0 0 0 0 0 0 0 0 0 0 0 0 0 0 0 0 0 0 0 0 0 0 0 0 0 0 0 0 0 0 0 0 0 0 0 0 0 0 0 0 676 660 653 638 631 626 620 615 611 610 614 619 622 621 618 615 614 615 618 620 620 620 620 620 620 618 616 615 614 612 610 610 609 609 607 605 602 598 592 590 591 593 594 597 601 613 622 638 646 653 658 659 660 659 656 655 655 655 654 655 656 657 659 660 660 660 662 664 667 668 667 667 665 663 661 658 656 654 652 651 652 653 654 655 656 656 657 657 657 658 658 659 660 660 661 661 663 665 666 668 670 671 672 673 675 676 678 679 680 681 683 684 684 686 686 686 687 687 687 688 691 693 696 697 693 692 700 706 710 711 713 715 715 713 712 713 716 722 729 730 730 723 711 710 711 710 712 714 715 716 717 719 720 719 719 719 718 720 720 721 725 730 733 738 741 742 744 745 747 749 751 752 753 754 755 756 757 759 760 760 762 764 766 769 773 780 784 787 787 786 784 781 778 775 773 771 768 765 765 764 762 756 749 746 745 744 744 744 743 742 740 740 740 741 744 745 749 750 750 754 758 761 763 766 767 769 771 774 776 777 779 781 785 790 794 797 801 803 804 804 806 807 810 816 822 826 830 836 841 844 848 850 838 0 0 0 0 0 0 0 0 0 0 0 0 0 0 0 0 0 0 0 0 0 0 0 0 0 0 0 0 0 0 0 0 0 0 0 0
0 0 0 0 0 0 0 0 0 0 0 0 0 0 0 0 0 0 0 0 0 0 0 0 0 0 0 0 0 0 0 0 0 0 0 0 0 0 0 0 0 0 0 0 0 0 0 0 0 0 0 0 0 0 0 0 0 0 0 0 0 0 0 0 0 0 0 0 0 0 0 0 0 0 0 0 0 0 0 0 0 0 0 0 0 0 0 0 0 0 0 0 0 0 0 0 0 0 0 0 0 0 0 0 0 0 0 0 0 0 0 0 0 0 0 0 0 0 0 0 0 0 0 0 0 0 0 0 0 0 0 0 0 0 0 0 0 0 0 0 0 0 0 0 0 0 0 0 0 0 0 0 0 0 0 0 0 0 0 0 0 0 0 0 0 0 0 0 0 0 0 0 0 0 0 0 0 0 0 0 0 0 0 0 0 0 0 0 0 0 0 0 0 0 0 0 0 0 0 0 0 0 0 0 0 0 0 676 664 658 645 635 628 621 614 609 610 612 616 618 617 613 610 611 614 617 620 620 620 620 620 620 617 614 613 612 610 610 608 607 606 605 603 601 597 593 591 590 591 594 597 601 613 621 637 647 653 655 657 657 655 654 651 651 651 651 651 652 653 654 656 657 657 659 662 664 665 664 663 661 658 655 653 649 648 648 650 651 652 653 654 655 655 656 656 656 656 657 658 659 660 660 660 661 662 664 667 669 671 670 671 673 674 676 678 678 679 680 681 682 682 683 684 684 684 684 684 687 690 692 692 691 690 695 699 704 705 708 709 710 710 710 710 717 723 726 727 727 722 710 707 707 706 708 710 711 713 714 715 714 712 713 713 712 718 720 724 726 730 734 739 741 743 744 746 747 749 750 751 752 753 753 754 756 758 760 760 762 765 768 770 775 780 781 783 783 782 781 779 776 773 771 768 764 760 761 761 758 750 745 742 741 741 741 741 740 740 740 740 740 744 746 748 749 751 756 759 763 765 768 770 772 774 777 779 781 784 787 791 795 798 800 802 804 807 807 807 807 809 811 816 821 827 832 838 843 846 850 846 0 0 0 0 0 0 0 0 0 0 0 0 0 0 0 0 0 0 0 0 0 0 0 0 0 0 0 0 0 0 0 0 0 0 0 0 0
0 0 0 0 0 0 0 0 0 0 0 0 0 0 0 0 0 0 0 0 0 0 0 0 0 0 0 0 0 0 0 0 0 0 0 0 0 0 0 0 0 0 0 0 0 0 0 0 0 0 0 0 0 0 0 0 0 0 0 0 0 0 0 0 0 0 0 0 0 0 0 0 0 0 0 0 0 0 0 0 0 0 0 0 0 0 0 0 0 0 0 0 0 0 0 0 0 0 0 0 0 0 0 0 0 0 0 0 0 0 0 0 0 0 0 0 0 0 0 0 0 0 0 0 0 0 0 0 0 0 0 0 0 0 0 0 0 0 0 0 0 0 0 0 0 0 0 0 0 0 0 0 0 0 0 0 0 0 0 0 0 0 0 0 0 0 0 0 0 0 0 0 0 0 0 0 0 0 0 0 0 0 0 0 0 0 0 0 0 0 0 0 0 0 0 0 0 0 0 0 0 0 0 0 0 0 0 676 667 661 649 638 630 620 613 606 604 610 612 614 613 610 610 610 612 615 618 620 620 620 620 620 618 612 611 610 610 609 607 604 603 603 601 600 598 595 592 590 590 592 596 601 613 626 637 647 652 653 654 654 654 650 649 648 648 648 648 648 650 651 653 653 655 657 660 661 661 661 658 655 652 649 643 640 640 644 648 651 652 652 653 654 654 655 654 655 655 656 657 659 660 660 660 660 662 664 667 668 669 670 670 671 673 674 675 676 677 678 680 680 680 680 681 681 681 681 680 683 685 688 690 689 689 690 694 697 700 702 704 706 709 710 711 716 720 722 722 721 718 704 702 703 703 705 708 710 710 710 709 707 705 708 710 711 718 723 727 730 732 735 740 741 743 744 746 747 748 749 750 751 752 752 754 756 758 760 760 763 766 769 772 775 779 780 780 780 778 777 775 773 771 769 767 763 760 759 755 752 745 740 740 740 740 740 740 740 740 740 741 745 748 749 752 756 759 762 765 767 770 773 775 778 780 783 786 789 793 796 800 801 802 803 805 807 810 810 809 809 810 814 819 822 828 834 840 844 848 850 840 0 0 0 0 0 0 0 0 0 0 0 0 0 0 0 0 0 0 0 0 0 0 0 0 0 0 0 0 0 0 0 0 0 0 0 0 0
0 0 0 0 0 0 0 0 0 0 0 0 0 0 0 0 0 0 0 0 0 0 0 0 0 0 0 0 0 0 0 0 0 0 0 0 0 0 0 0 0 0 0 0 0 0 0 0 0 0 0 0 0 0 0 0 0 0 0 0 0 0 0 0 0 0 0 0 0 0 0 0 0 0 0 0 0 0 0 0 0 0 0 0 0 0 0 0 0 0 0 0 0 0 0 0 0 0 0 0 0 0 0 0 0 0 0 0 0 0 0 0 0 0 0 0 0 0 0 0 0 0 0 0 0 0 0 0 0 0 0 0 0 0 0 0 0 0 0 0 0 0 0 0 0 0 0 0 0 0 0 0 0 0 0 0 0 0 0 0 0 0 0 0 0 0 0 0 0 0 0 0 0 0 0 0 0 0 0 0 0 0 0 0 0 0 0 0 0 0 0 0 0 0 0 0 0 0 0 0 0 0 0 0 0 0 0 675 669 661 650 640 630 621 612 606 600 609 610 610 610 610 610 610 610 613 617 620 620 620 620 620 619 615 611 610 610 609 606 603 600 600 600 600 600 597 594 591 590 590 595 600 613 624 636 645 650 650 650 651 651 650 646 645 645 645 645 645 646 648 649 651 653 655 657 658 658 656 653 650 647 643 638 634 640 642 646 650 651 651 652 652 653 653 653 654 654 655 657 658 660 660 660 660 662 664 666 667 668 670 670 670 671 672 672 673 674 675 677 677 676 677 678 680 680 679 677 678 680 683 685 686 686 688 690 693 696 698 700 703 705 708 711 715 718 718 716 714 702 697 698 700 701 703 705 707 705 701 700 700 700 707 712 716 721 725 730 732 735 737 740 741 743 744 745 746 747 748 749 750 750 752 754 755 757 759 761 764 767 770 773 774 778 780 780 777 775 774 772 770 768 767 764 762 759 755 752 746 740 740 740 740 740 740 740 740 740 745 751 753 754 757 761 764 766 769 771 773 775 779 781 784 787 790 793 797 800 801 803 805 806 807 808 810 812 814 814 814 816 819 822 824 829 834 840 845 849 849 0 0 0 0 0 0 0 0 0 0 0 0 0 0 0 0 0 0 0 0 0 0 0 0 0 0 0 0 0 0 0 0 0 0 0 0 0 0
0 0 0 0 0 0 0 0 0 0 0 0 0 0 0 0 0 0 0 0 0 0 0 0 0 0 0 0 0 0 0 0 0 0 0 0 0 0 0 0 0 0 0 0 0 0 0 0 0 0 0 0 0 0 0 0 0 0 0 0 0 0 0 0 0 0 0 0 0 0 0 0 0 0 0 0 0 0 0 0 0 0 0 0 0 0 0 0 0 0 0 0 0 0 0 0 0 0 0 0 0 0 0 0 0 0 0 0 0 0 0 0 0 0 0 0 0 0 0 0 0 0 0 0 0 0 0 0 0 0 0 0 0 0 0 0 0 0 0 0 0 0 0 0 0 0 0 0 0 0 0 0 0 0 0 0 0 0 0 0 0 0 0 0 0 0 0 0 0 0 0 0 0 0 0 0 0 0 0 0 0 0 0 0 0 0 0 0 0 0 0 0 0 0 0 0 0 0 0 0 0 0 0 0 0 0 683 675 668 660 650 640 632 623 608 602 600 606 610 610 609 609 609 609 609 611 614 617 620 620 620 620 620 620 615 612 610 608 605 603 600 600 600 600 600 599 596 592 590 590 594 600 612 625 636 643 650 650 650 650 650 649 643 642 642 642 642 642 643 644 646 648 650 653 654 654 654 651 647 644 642 639 633 630 635 640 644 648 650 650 651 651 652 652 652 652 653 654 656 658 660 660 660 660 662 663 665 666 667 669 670 670 670 670 670 671 672 673 673 673 673 673 673 677 679 675 672 673 676 678 681 682 683 685 687 690 693 695 698 701 704 707 710 712 714 714 711 704 697 693 693 700 700 700 698 698 699 700 700 700 705 711 715 719 723 728 731 733 735 737 740 741 742 743 744 745 745 746 747 750 750 752 754 756 758 760 763 766 770 772 774 776 778 780 778 775 773 771 769 767 765 764 762 759 755 752 746 740 740 740 740 740 740 740 741 746 751 754 757 760 762 764 767 769 772 774 776 778 781 784 787 790 793 796 800 802 803 804 806 808 809 810 811 814 817 820 820 822 823 825 826 827 830 835 840 845 849 843 0 0 0 0 0 0 0 0 0 0 0 0 0 0 0 0 0 0 0 0 0 0 0 0 0 0 0 0 0 0 0 0 0 0 0 0 0 0
0 0 0 0 0 0 0 0 0 0 0 0 0 0 0 0 0 0 0 0 0 0 0 0 0 0 0 0 0 0 0 0 0 0 0 0 0 0 0 0 0 0 0 0 0 0 0 0 0 0 0 0 0 0 0 0 0 0 0 0 0 0 0 0 0 0 0 0 0 0 0 0 0 0 0 0 0 0 0 0 0 0 0 0 0 0 0 0 0 0 0 0 0 0 0 0 0 0 0 0 0 0 0 0 0 0 0 0 0 0 0 0 0 0 0 0 0 0 0 0 0 0 0 0 0 0 0 0 0 0 0 0 0 0 0 0 0 0 0 0 0 0 0 0 0 0 0 0 0 0 0 0 0 0 0 0 0 0 0 0 0 0 0 0 0 0 0 0 0 0 0 0 0 0 0 0 0 0 0 0 0 0 0 0 0 0 0 0 0 0 0 0 0 0 0 0 0 0 0 0 0 0 0 0 0 0 680 677 668 660 652 644 635 625 609 600 600 600 609 610 608 606 606 606 607 609 611 614 617 620 620 620 620 620 620 616 612 609 606 604 602 600 600 598 600 600 595 591 590 590 593 601 613 626 636 642 648 650 650 650 650 646 640 640 640 640 640 640 640 641 643 646 648 650 651 651 648 643 640 639 637 632 627 625 631 640 643 647 650 650 650 650 651 651 651 651 652 654 656 658 659 660 660 660 661 663 664 665 667 668 669 670 670 670 670 670 670 670 670 668 670 670 670 672 674 671 670 670 672 674 677 678 680 681 684 687 690 693 696 700 703 706 708 710 710 705 700 693 689 688 686 688 690 690 690 690 695 700 701 706 712 715 719 722 725 729 732 734 735 737 740 740 741 741 742 743 744 745 746 750 750 752 756 759 762 765 766 769 774 774 775 777 779 779 776 773 771 768 766 764 763 761 758 755 752 746 739 737 739 740 740 740 741 745 749 752 756 760 763 765 768 771 772 774 777 778 781 784 786 789 792 795 798 801 802 804 806 807 808 810 812 813 815 818 821 826 829 830 831 831 832 833 835 838 842 846 851 0 0 0 0 0 0 0 0 0 0 0 0 0 0 0 0 0 0 0 0 0 0 0 0 0 0 0 0 0 0 0 0 0 0 0 0 0 0 0
0 0 0 0 0 0 0 0 0 0 0 0 0 0 0 0 0 0 0 0 0 0 0 0 0 0 0 0 0 0 0 0 0 0 0 0 0 0 0 0 0 0 0 0 0 0 0 0 0 0 0 0 0 0 0 0 0 0 0 0 0 0 0 0 0 0 0 0 0 0 0 0 0 0 0 0 0 0 0 0 0 0 0 0 0 0 0 0 0 0 0 0 0 0 0 0 0 0 0 0 0 0 0 0 0 0 0 0 0 0 0 0 0 0 0 0 0 0 0 0 0 0 0 0 0 0 0 0 0 0 0 0 0 0 0 0 0 0 0 0 0 0 0 0 0 0 0 0 0 0 0 0 0 0 0 0 0 0 0 0 0 0 0 0 0 0 0 0 0 0 0 0 0 0 0 0 0 0 0 0 0 0 0 0 0 0 0 0 0 0 0 0 0 0 0 0 0 0 0 0 0 0 0 0 0 0 676 684 670 661 655 647 636 627 617 605 600 600 600 605 606 604 604 604 606 607 607 609 613 617 620 620 620 620 620 620 615 610 608 605 602 599 595 593 596 595 591 590 590 590 593 603 615 630 637 642 647 650 650 650 647 640 639 637 637 636 637 637 637 638 641 642 644 644 644 644 642 637 634 632 631 620 620 626 639 641 644 647 650 650 650 650 650 650 650 650 652 653 655 657 659 660 660 660 661 662 664 665 666 668 669 670 670 670 670 670 670 670 670 669 668 667 668 669 670 669 668 668 668 670 672 672 675 678 681 683 687 690 695 700 700 702 702 697 694 690 687 684 681 680 681 689 690 690 690 693 699 704 708 712 716 720 720 722 726 729 732 734 736 737 739 740 740 740 741 741 742 743 745 750 750 757 760 764 768 770 771 774 778 777 778 778 780 777 773 771 768 766 764 762 760 758 754 751 747 740 737 735 736 738 739 742 746 750 754 757 760 764 768 770 773 776 778 780 783 785 788 790 792 794 797 799 801 803 805 806 808 809 811 813 815 816 818 821 825 829 832 835 836 837 838 841 842 845 848 850 845 0 0 0 0 0 0 0 0 0 0 0 0 0 0 0 0 0 0 0 0 0 0 0 0 0 0 0 0 0 0 0 0 0 0 0 0 0 0 0
0 0 0 0 0 0 0 0 0 0 0 0 0 0 0 0 0 0 0 0 0 0 0 0 0 0 0 0 0 0 0 0 0 0 0 0 0 0 0 0 0 0 0 0 0 0 0 0 0 0 0 0 0 0 0 0 0 0 0 0 0 0 0 0 0 0 0 0 0 0 0 0 0 0 0 0 0 0 0 0 0 0 0 0 0 0 0 0 0 0 0 0 0 0 0 0 0 0 0 0 0 0 0 0 0 0 0 0 0 0 0 0 0 0 0 0 0 0 0 0 0 0 0 0 0 0 0 0 0 0 0 0 0 0 0 0 0 0 0 0 0 0 0 0 0 0 0 0 0 0 0 0 0 0 0 0 0 0 0 0 0 0 0 0 0 0 0 0 0 0 0 0 0 0 0 0 0 0 0 0 0 0 0 0 0 0 0 0 0 0 0 0 0 0 0 0 0 0 0 0 0 0 0 0 0 0 673 691 679 668 659 649 639 634 625 615 610 600 600 600 601 602 601 603 603 604 604 606 609 613 617 620 620 620 620 620 618 612 608 606 604 601 595 590 590 590 590 590 590 590 593 604 617 631 637 643 647 650 650 647 642 639 637 635 635 633 633 634 634 636 638 640 639 639 638 637 636 630 626 624 621 620 623 634 640 640 643 646 649 650 650 649 648 648 649 649 650 652 654 656 658 660 660 660 660 661 663 664 666 667 668 669 670 670 670 670 670 670 670 667 666 665 665 666 667 666 665 665 665 667 668 669 671 674 677 680 683 687 689 693 696 696 693 688 686 684 681 680 680 682 688 690 691 692 694 700 703 708 710 715 720 720 720 722 726 729 731 733 735 737 738 740 740 740 740 740 741 741 744 750 757 763 766 770 773 775 776 777 780 780 780 780 779 774 771 768 766 764 762 759 756 754 750 745 740 737 734 732 733 736 739 745 750 754 758 761 765 769 773 776 779 782 784 787 789 792 794 796 798 799 801 803 804 806 808 809 810 812 814 816 818 820 821 823 827 831 838 839 841 842 844 847 850 850 850 850 0 0 0 0 0 0 0 0 0 0 0 0 0 0 0 0 0 0 0 0 0 0 0 0 0 0 0 0 0 0 0 0 0 0 0 0 0 0 0 0
0 0 0 0 0 0 0 0 0 0 0 0 0 0 0 0 0 0 0 0 0 0 0 0 0 0 0 0 0 0 0 0 0 0 0 0 0 0 0 0 0 0 0 0 0 0 0 0 0 0 0 0 0 0 0 0 0 0 0 0 0 0 0 0 0 0 0 0 0 0 0 0 0 0 0 0 0 0 0 0 0 0 0 0 0 0 0 0 0 0 0 0 0 0 0 0 0 0 0 0 0 0 0 0 0 0 0 0 0 0 0 0 0 0 0 0 0 0 0 0 0 0 0 0 0 0 0 0 0 0 0 0 0 0 0 0 0 0 0 0 0 0 0 0 0 0 0 0 0 0 0 0 0 0 0 0 0 0 0 0 0 0 0 0 0 0 0 0 0 0 0 0 0 0 0 0 0 0 0 0 0 0 0 0 0 0 0 0 0 0 0 0 0 0 0 0 0 0 0 0 0 0 0 0 0 0 667 699 700 678 664 653 651 651 642 625 617 606 600 600 600 600 600 600 600 601 600 602 605 609 613 616 620 620 620 619 618 613 610 610 608 604 597 590 590 590 590 590 590 590 595 606 618 630 638 643 646 648 647 644 640 637 635 633 632 631 630 631 631 632 634 635 636 636 635 633 630 625 620 620 620 621 633 639 640 640 643 645 647 647 647 647 646 647 648 648 649 650 653 655 658 660 660 660 660 661 662 663 665 666 667 668 669 670 670 670 670 670 669 665 664 663 663 663 664 664 663 662 662 664 665 666 668 671 674 677 680 683 686 687 688 689 684 682 680 680 680 680 682 690 690 694 695 697 699 700 703 708 710 712 715 718 720 722 724 727 730 732 733 735 737 739 740 740 740 740 740 740 748 756 761 765 768 772 777 779 780 780 780 780 780 780 776 770 768 766 764 762 760 756 753 749 742 738 736 734 731 730 734 738 743 749 753 758 762 766 770 775 779 782 785 787 789 792 795 797 800 802 806 808 809 807 807 808 810 812 813 815 816 818 820 822 824 825 828 836 841 843 846 847 849 850 850 850 850 847 0 0 0 0 0 0 0 0 0 0 0 0 0 0 0 0 0 0 0 0 0 0 0 0 0 0 0 0 0 0 0 0 0 0 0 0 0 0 0 0
0 0 0 0 0 0 0 0 0 0 0 0 0 0 0 0 0 0 0 0 0 0 0 0 0 0 0 0 0 0 0 0 0 0 0 0 0 0 0 0 0 0 0 0 0 0 0 0 0 0 0 0 0 0 0 0 0 0 0 0 0 0 0 0 0 0 0 0 0 0 0 0 0 0 0 0 0 0 0 0 0 0 0 0 0 0 0 0 0 0 0 0 0 0 0 0 0 0 0 0 0 0 0 0 0 0 0 0 0 0 0 0 0 0 0 0 0 0 0 0 0 0 0 0 0 0 0 0 0 0 0 0 0 0 0 0 0 0 0 0 0 0 0 0 0 0 0 0 0 0 0 0 0 0 0 0 0 0 0 0 0 0 0 0 0 0 0 0 0 0 0 0 0 0 0 0 0 0 0 0 0 0 0 0 0 0 0 0 0 0 0 0 0 0 0 0 0 0 0 0 0 0 0 0 0 0 655 700 700 694 679 659 656 656 653 640 625 614 604 599 594 596 599 600 600 600 600 600 600 605 609 613 616 617 616 615 614 611 610 610 610 609 598 590 590 590 590 590 590 590 595 610 618 630 639 642 644 644 644 641 638 635 633 631 630 630 630 628 629 629 630 628 632 632 631 627 624 620 620 620 621 630 634 638 639 640 642 642 644 645 645 644 645 646 646 647 648 650 652 655 658 660 660 660 660 660 661 663 664 666 666 667 668 669 670 670 670 670 666 663 661 661 660 660 661 661 660 660 660 661 662 664 666 668 671 674 678 680 682 683 682 679 677 679 680 680 680 680 685 690 690 696 700 702 704 706 708 710 710 710 712 718 720 720 721 724 727 730 731 733 735 737 740 740 740 740 744 747 753 760 764 767 770 775 780 780 780 780 780 780 779 774 770 767 765 763 762 760 756 753 749 740 736 734 732 730 730 731 736 741 748 753 757 762 767 771 775 780 785 788 790 792 795 798 800 803 806 810 811 812 812 811 810 811 814 815 816 818 819 821 823 825 826 828 831 840 843 846 849 850 850 850 850 850 850 0 0 0 0 0 0 0 0 0 0 0 0 0 0 0 0 0 0 0 0 0 0 0 0 0 0 0 0 0 0 0 0 0 0 0 0 0 0 0 0 0
0 0 0 0 0 0 0 0 0 0 0 0 0 0 0 0 0 0 0 0 0 0 0 0 0 0 0 0 0 0 0 0 0 0 0 0 0 0 0 0 0 0 0 0 0 0 0 0 0 0 0 0 0 0 0 0 0 0 0 0 0 0 0 0 0 0 0 0 0 0 0 0 0 0 0 0 0 0 0 0 0 0 0 0 0 0 0 0 0 0 0 0 0 0 0 0 0 0 0 0 0 0 0 0 0 0 0 0 0 0 0 0 0 0 0 0 0 0 0 0 0 0 0 0 0 0 0 0 0 0 0 0 0 0 0 0 0 0 0 0 0 0 0 0 0 0 0 0 0 0 0 0 0 0 0 0 0 0 0 0 0 0 0 0 0 0 0 0 0 0 0 0 0 0 0 0 0 0 0 0 0 0 0 0 0 0 0 0 0 0 0 0 0 0 0 0 0 0 0 0 0 0 0 0 0 0 653 700 700 695 689 682 666 663 658 648 633 620 610 600 590 592 598 600 600 600 600 600 600 600 604 609 613 613 612 612 610 610 610 610 610 603 592 590 590 590 590 590 590 590 596 612 619 627 635 640 640 641 641 638 635 633 630 630 630 628 627 626 626 627 628 628 629 628 627 622 620 620 620 625 630 630 632 635 637 638 639 640 641 642 642 642 643 644 645 646 648 649 652 655 658 660 660 660 660 660 661 662 663 665 665 666 667 667 668 668 667 665 663 660 660 659 658 658 658 658 658 658 658 659 660 661 663 666 670 673 675 675 676 677 674 672 674 679 680 680 680 681 685 689 692 698 704 709 710 712 714 715 715 715 717 720 720 721 723 725 729 730 730 731 734 737 740 740 742 747 750 753 757 761 765 769 774 778 780 780 780 780 779 775 772 768 767 765 762 760 759 756 753 749 741 736 733 730 730 730 732 735 739 744 750 757 761 766 772 776 781 786 790 793 795 797 800 803 806 809 811 813 814 815 815 814 815 816 817 819 820 821 823 824 826 828 829 833 840 841 844 847 850 850 850 850 850 850 850 0 0 0 0 0 0 0 0 0 0 0 0 0 0 0 0 0 0 0 0 0 0 0 0 0 0 0 0 0 0 0 0 0 0 0 0 0 0 0 0 0
0 0 0 0 0 0 0 0 0 0 0 0 0 0 0 0 0 0 0 0 0 0 0 0 0 0 0 0 0 0 0 0 0 0 0 0 0 0 0 0 0 0 0 0 0 0 0 0 0 0 0 0 0 0 0 0 0 0 0 0 0 0 0 0 0 0 0 0 0 0 0 0 0 0 0 0 0 0 0 0 0 0 0 0 0 0 0 0 0 0 0 0 0 0 0 0 0 0 0 0 0 0 0 0 0 0 0 0 0 0 0 0 0 0 0 0 0 0 0 0 0 0 0 0 0 0 0 0 0 0 0 0 0 0 0 0 0 0 0 0 0 0 0 0 0 0 0 0 0 0 0 0 0 0 0 0 0 0 0 0 0 0 0 0 0 0 0 0 0 0 0 0 0 0 0 0 0 0 0 0 0 0 0 0 0 0 0 0 0 0 0 0 0 0 0 0 0 0 0 0 0 0 0 0 0 0 653 700 700 697 691 685 678 670 660 650 635 624 615 608 593 590 594 600 600 600 600 600 600 600 600 606 611 610 610 610 610 610 610 610 610 600 590 590 590 590 590 590 590 590 597 613 619 627 635 640 640 640 638 634 632 629 627 625 625 625 624 623 624 624 625 625 626 624 622 620 620 620 624 627 630 630 630 632 635 636 637 638 639 640 640 641 642 643 644 646 647 649 650 653 657 660 660 660 660 660 660 661 663 663 664 665 665 666 666 666 664 662 660 659 658 657 656 655 655 656 655 655 656 657 659 660 661 665 668 670 671 671 670 670 670 670 674 678 680 680 680 682 687 691 694 698 705 710 713 716 719 720 720 721 722 724 725 727 729 731 731 732 734 734 735 737 740 743 750 752 754 756 760 764 768 772 777 780 780 780 780 780 776 772 768 765 763 762 760 757 755 752 748 740 734 730 730 730 730 731 734 738 742 746 752 760 765 771 777 782 787 791 794 796 799 803 807 810 812 813 815 816 817 818 818 818 819 821 822 823 824 825 827 828 829 831 837 840 841 843 844 846 849 850 850 850 850 850 0 0 0 0 0 0 0 0 0 0 0 0 0 0 0 0 0 0 0 0 0 0 0 0 0 0 0 0 0 0 0 0 0 0 0 0 0 0 0 0 0 0
0 0 0 0 0 0 0 0 0 0 0 0 0 0 0 0 0 0 0 0 0 0 0 0 0 0 0 0 0 0 0 0 0 0 0 0 0 0 0 0 0 0 0 0 0 0 0 0 0 0 0 0 0 0 0 0 0 0 0 0 0 0 0 0 0 0 0 0 0 0 0 0 0 0 0 0 0 0 0 0 0 0 0 0 0 0 0 0 0 0 0 0 0 0 0 0 0 0 0 0 0 0 0 0 0 0 0 0 0 0 0 0 0 0 0 0 0 0 0 0 0 0 0 0 0 0 0 0 0 0 0 0 0 0 0 0 0 0 0 0 0 0 0 0 0 0 0 0 0 0 0 0 0 0 0 0 0 0 0 0 0 0 0 0 0 0 0 0 0 0 0 0 0 0 0 0 0 0 0 0 0 0 0 0 0 0 0 0 0 0 0 0 0 0 0 0 0 0 0 0 0 0 0 0 0 0 654 700 700 700 694 686 678 668 659 648 635 623 616 611 595 590 592 599 600 600 600 600 600 600 600 602 609 610 610 610 610 610 610 610 610 598 590 590 590 590 590 590 590 591 602 615 622 629 636 640 640 640 636 631 628 626 624 621 621 621 620 621 621 622 622 622 622 621 620 620 620 620 622 625 628 629 630 631 633 635 636 637 638 639 640 640 641 642 644 645 646 647 648 650 651 656 660 660 660 660 660 661 662 662 662 663 664 665 665 664 662 660 659 657 656 655 654 653 652 653 653 654 655 656 657 659 660 663 665 667 670 670 670 670 670 673 675 677 680 680 683 686 690 694 698 700 705 712 715 718 721 721 722 724 726 727 730 731 733 735 736 738 739 739 739 740 743 750 753 755 758 760 762 765 769 774 780 780 780 780 780 780 775 770 766 763 760 760 758 755 752 747 738 731 730 730 730 730 730 733 737 740 745 749 756 763 770 776 781 786 791 794 797 800 807 810 812 814 816 817 818 819 820 821 822 823 824 825 826 827 828 829 831 831 834 839 840 841 843 844 845 846 849 850 850 850 850 850 0 0 0 0 0 0 0 0 0 0 0 0 0 0 0 0 0 0 0 0 0 0 0 0 0 0 0 0 0 0 0 0 0 0 0 0 0 0 0 0 0 0
0 0 0 0 0 0 0 0 0 0 0 0 0 0 0 0 0 0 0 0 0 0 0 0 0 0 0 0 0 0 0 0 0 0 0 0 0 0 0 0 0 0 0 0 0 0 0 0 0 0 0 0 0 0 0 0 0 0 0 0 0 0 0 0 0 0 0 0 0 0 0 0 0 0 0 0 0 0 0 0 0 0 0 0 0 0 0 0 0 0 0 0 0 0 0 0 0 0 0 0 0 0 0 0 0 0 0 0 0 0 0 0 0 0 0 0 0 0 0 0 0 0 0 0 0 0 0 0 0 0 0 0 0 0 0 0 0 0 0 0 0 0 0 0 0 0 0 0 0 0 0 0 0 0 0 0 0 0 0 0 0 0 0 0 0 0 0 0 0 0 0 0 0 0 0 0 0 0 0 0 0 0 0 0 0 0 0 0 0 0 0 0 0 0 0 0 0 0 0 0 0 0 0 0 0 0 656 700 700 700 694 687 677 666 657 641 631 622 616 611 597 590 591 597 600 600 600 600 600 600 600 601 608 610 610 610 610 610 610 610 607 599 591 586 587 588 589 590 590 595 609 619 629 632 637 640 640 639 633 629 626 624 621 619 618 618 617 618 620 620 620 620 618 616 619 620 620 620 621 624 626 627 629 630 632 633 635 635 636 638 639 640 640 641 642 644 645 646 647 648 650 653 657 659 660 660 660 660 661 661 661 662 663 663 663 662 660 660 658 656 655 653 652 651 650 650 651 653 654 655 657 659 660 660 661 665 668 670 670 670 673 675 678 681 683 685 689 691 694 698 702 702 706 712 717 720 722 724 725 726 728 731 732 734 736 738 740 742 744 745 745 749 751 754 756 759 761 763 765 768 773 780 780 780 780 780 780 778 775 770 766 762 760 758 756 753 748 738 731 727 729 730 730 730 733 736 739 744 749 754 761 769 777 781 785 789 793 796 799 808 812 814 815 817 820 822 824 826 827 827 827 828 828 828 829 830 831 832 833 835 836 839 840 842 843 844 846 847 849 850 850 850 850 0 0 0 0 0 0 0 0 0 0 0 0 0 0 0 0 0 0 0 0 0 0 0 0 0 0 0 0 0 0 0 0 0 0 0 0 0 0 0 0 0 0 0
0 0 0 0 0 0 0 0 0 0 0 0 0 0 0 0 0 0 0 0 0 0 0 0 0 0 0 0 0 0 0 0 0 0 0 0 0 0 0 0 0 0 0 0 0 0 0 0 0 0 0 0 0 0 0 0 0 0 0 0 0 0 0 0 0 0 0 0 0 0 0 0 0 0 0 0 0 0 0 0 0 0 0 0 0 0 0 0 0 0 0 0 0 0 0 0 0 0 0 0 0 0 0 0 0 0 0 0 0 0 0 0 0 0 0 0 0 0 0 0 0 0 0 0 0 0 0 0 0 0 0 0 0 0 0 0 0 0 0 0 0 0 0 0 0 0 0 0 0 0 0 0 0 0 0 0 0 0 0 0 0 0 0 0 0 0 0 0 0 0 0 0 0 0 0 0 0 0 0 0 0 0 0 0 0 0 0 0 0 0 0 0 0 0 0 0 0 0 0 0 0 0 0 0 0 0 657 700 700 699 694 687 676 663 653 637 628 622 616 609 590 590 590 594 597 600 600 600 600 600 600 602 607 610 610 610 610 610 609 607 605 600 593 585 583 584 585 587 590 599 614 625 632 634 638 640 640 638 632 628 624 621 619 617 616 615 615 615 616 620 620 615 611 611 615 619 620 620 620 622 624 626 628 630 631 632 633 634 635 636 638 640 640 640 641 642 644 645 646 648 649 651 654 656 658 660 660 660 660 660 660 661 661 661 661 660 660 660 658 656 654 652 651 650 650 650 651 653 654 656 658 660 660 660 660 663 667 670 670 673 676 679 682 686 688 691 693 696 699 702 706 708 710 713 718 721 724 726 728 729 731 733 735 737 739 741 743 744 746 749 751 753 754 756 759 762 764 767 769 773 780 780 780 780 780 779 777 774 772 768 764 760 756 754 753 751 738 730 727 723 726 728 731 734 736 739 743 748 754 760 769 777 782 785 788 792 795 799 803 810 813 816 819 820 822 825 828 830 830 830 830 830 830 830 830 830 832 833 834 836 837 840 841 842 843 845 846 847 849 850 850 850 850 0 0 0 0 0 0 0 0 0 0 0 0 0 0 0 0 0 0 0 0 0 0 0 0 0 0 0 0 0 0 0 0 0 0 0 0 0 0 0 0 0 0 0
0 0 0 0 0 0 0 0 0 0 0 0 0 0 0 0 0 0 0 0 0 0 0 0 0 0 0 0 0 0 0 0 0 0 0 0 0 0 0 0 0 0 0 0 0 0 0 0 0 0 0 0 0 0 0 0 0 0 0 0 0 0 0 0 0 0 0 0 0 0 0 0 0 0 0 0 0 0 0 0 0 0 0 0 0 0 0 0 0 0 0 0 0 0 0 0 0 0 0 0 0 0 0 0 0 0 0 0 0 0 0 0 0 0 0 0 0 0 0 0 0 0 0 0 0 0 0 0 0 0 0 0 0 0 0 0 0 0 0 0 0 0 0 0 0 0 0 0 0 0 0 0 0 0 0 0 0 0 0 0 0 0 0 0 0 0 0 0 0 0 0 0 0 0 0 0 0 0 0 0 0 0 0 0 0 0 0 0 0 0 0 0 0 0 0 0 0 0 0 0 0 0 0 0 0 0 658 700 700 700 693 686 674 662 651 637 627 621 615 609 591 590 590 590 594 596 599 600 600 600 601 604 607 610 610 610 610 608 606 604 602 600 592 583 580 580 583 587 593 603 619 630 634 637 640 645 646 639 631 626 623 620 617 615 614 613 612 612 612 613 614 612 610 612 615 618 620 620 620 621 622 626 630 630 630 631 632 633 635 636 638 640 640 640 641 642 643 644 646 647 648 650 650 653 656 660 660 660 660 660 660 660 660 660 660 660 660 660 659 656 654 652 650 650 650 650 652 653 655 657 659 660 660 660 661 664 667 670 674 677 680 690 692 692 694 697 698 699 703 705 709 711 712 714 718 721 724 727 730 732 733 735 738 740 742 743 745 746 748 751 753 755 757 758 762 765 767 770 775 780 780 780 780 780 779 776 773 770 767 763 758 754 752 751 750 738 730 727 723 720 723 728 732 736 740 742 746 753 761 766 776 781 784 787 790 794 798 802 806 811 814 817 820 822 824 826 829 830 830 830 830 830 830 830 830 830 832 833 835 836 837 839 841 842 843 845 846 847 848 849 850 850 849 0 0 0 0 0 0 0 0 0 0 0 0 0 0 0 0 0 0 0 0 0 0 0 0 0 0 0 0 0 0 0 0 0 0 0 0 0 0 0 0 0 0 0
0 0 0 0 0 0 0 0 0 0 0 0 0 0 0 0 0 0 0 0 0 0 0 0 0 0 0 0 0 0 0 0 0 0 0 0 0 0 0 0 0 0 0 0 0 0 0 0 0 0 0 0 0 0 0 0 0 0 0 0 0 0 0 0 0 0 0 0 0 0 0 0 0 0 0 0 0 0 0 0 0 0 0 0 0 0 0 0 0 0 0 0 0 0 0 0 0 0 0 0 0 0 0 0 0 0 0 0 0 0 0 0 0 0 0 0 0 0 0 0 0 0 0 0 0 0 0 0 0 0 0 0 0 0 0 0 0 0 0 0 0 0 0 0 0 0 0 0 0 0 0 0 0 0 0 0 0 0 0 0 0 0 0 0 0 0 0 0 0 0 0 0 0 0 0 0 0 0 0 0 0 0 0 0 0 0 0 0 0 0 0 0 0 0 0 0 0 0 0 0 0 0 0 0 0 0 659 700 700 700 694 685 673 662 651 634 626 620 614 606 594 590 590 590 590 592 594 596 598 600 601 604 606 609 610 610 609 607 605 603 601 598 591 580 580 580 583 589 598 612 625 632 635 638 643 649 649 639 632 625 620 618 616 614 612 610 610 600 600 605 606 604 604 611 613 615 617 619 620 620 623 627 630 630 630 630 631 633 635 636 638 640 640 640 640 641 642 643 645 646 647 650 650 652 656 660 660 660 660 660 660 660 660 660 660 660 660 660 659 658 655 650 650 650 650 652 654 656 656 658 659 660 661 663 665 667 670 674 677 681 690 697 699 698 700 701 700 700 708 710 711 713 714 715 718 721 725 728 731 733 735 737 740 742 744 746 747 748 750 752 755 757 760 760 764 768 771 778 780 780 780 780 780 780 776 772 767 761 760 757 752 748 743 740 738 732 728 724 721 720 723 728 732 736 740 744 748 757 765 772 781 784 786 789 792 796 799 804 808 812 815 819 821 823 825 828 830 830 830 830 830 830 830 830 830 830 832 833 835 836 838 839 841 842 843 844 845 846 847 848 850 850 0 0 0 0 0 0 0 0 0 0 0 0 0 0 0 0 0 0 0 0 0 0 0 0 0 0 0 0 0 0 0 0 0 0 0 0 0 0 0 0 0 0 0 0
0 0 0 0 0 0 0 0 0 0 0 0 0 0 0 0 0 0 0 0 0 0 0 0 0 0 0 0 0 0 0 0 0 0 0 0 0 0 0 0 0 0 0 0 0 0 0 0 0 0 0 0 0 0 0 0 0 0 0 0 0 0 0 0 0 0 0 0 0 0 0 0 0 0 0 0 0 0 0 0 0 0 0 0 0 0 0 0 0 0 0 0 0 0 0 0 0 0 0 0 0 0 0 0 0 0 0 0 0 0 0 0 0 0 0 0 0 0 0 0 0 0 0 0 0 0 0 0 0 0 0 0 0 0 0 0 0 0 0 0 0 0 0 0 0 0 0 0 0 0 0 0 0 0 0 0 0 0 0 0 0 0 0 0 0 0 0 0 0 0 0 0 0 0 0 0 0 0 0 0 0 0 0 0 0 0 0 0 0 0 0 0 0 0 0 0 0 0 0 0 0 0 0 0 0 0 661 700 700 700 695 686 672 662 652 634 626 620 612 604 596 590 590 587 586 588 590 593 595 598 600 602 605 607 609 609 607 605 604 603 601 597 587 580 580 580 585 592 602 617 630 634 637 640 648 650 648 636 629 623 618 616 614 612 610 607 603 600 600 600 600 600 600 610 610 610 612 614 616 620 626 630 630 630 630 630 630 632 634 636 638 640 640 640 640 640 641 642 644 645 648 650 650 652 656 660 660 660 660 660 660 660 660 660 660 660 660 660 660 659 652 650 650 650 653 658 659 658 659 659 660 662 663 665 667 669 673 677 682 688 695 701 703 703 704 706 704 706 711 713 714 715 716 718 719 722 725 728 732 735 737 739 741 744 746 748 749 751 752 754 756 758 760 765 774 780 781 781 780 780 780 780 779 777 773 767 759 756 753 750 746 743 740 736 734 729 726 723 720 720 724 730 734 738 741 746 752 761 770 778 783 787 789 791 794 798 802 807 811 814 817 820 822 824 826 827 829 830 830 830 830 830 830 830 830 830 832 833 835 836 838 839 840 841 842 843 844 845 846 848 848 0 0 0 0 0 0 0 0 0 0 0 0 0 0 0 0 0 0 0 0 0 0 0 0 0 0 0 0 0 0 0 0 0 0 0 0 0 0 0 0 0 0 0 0 0
0 0 0 0 0 0 0 0 0 0 0 0 0 0 0 0 0 0 0 0 0 0 0 0 0 0 0 0 0 0 0 0 0 0 0 0 0 0 0 0 0 0 0 0 0 0 0 0 0 0 0 0 0 0 0 0 0 0 0 0 0 0 0 0 0 0 0 0 0 0 0 0 0 0 0 0 0 0 0 0 0 0 0 0 0 0 0 0 0 0 0 0 0 0 0 0 0 0 0 0 0 0 0 0 0 0 0 0 0 0 0 0 0 0 0 0 0 0 0 0 0 0 0 0 0 0 0 0 0 0 0 0 0 0 0 0 0 0 0 0 0 0 0 0 0 0 0 0 0 0 0 0 0 0 0 0 0 0 0 0 0 0 0 0 0 0 0 0 0 0 0 0 0 0 0 0 0 0 0 0 0 0 0 0 0 0 0 0 0 0 0 0 0 0 0 0 0 0 0 0 0 0 0 0 0 0 662 700 700 700 694 685 675 662 653 634 625 618 609 603 597 591 586 583 582 584 587 590 593 596 598 600 601 602 604 605 605 604 602 601 600 593 584 580 580 581 587 595 607 622 632 636 639 645 650 650 648 634 627 621 617 614 611 610 607 604 600 600 600 600 600 600 600 600 601 605 608 609 612 616 622 627 630 630 630 630 630 631 633 635 637 639 640 640 640 640 640 642 643 645 648 650 650 652 656 660 660 660 660 660 660 660 660 660 660 660 660 660 660 654 650 650 650 650 660 661 662 662 663 665 665 665 666 667 668 671 676 680 687 693 699 704 706 707 708 710 711 711 713 715 717 718 719 720 721 724 726 729 733 737 739 741 744 746 748 750 752 754 755 756 758 760 769 779 782 784 785 784 781 780 780 778 775 773 770 761 756 752 748 743 740 739 737 734 731 727 723 720 720 720 728 733 738 742 746 750 757 766 776 783 786 790 792 795 797 800 805 810 813 816 819 820 822 824 825 827 829 830 830 830 830 830 830 830 830 830 832 833 835 836 837 839 840 840 841 842 843 844 845 845 0 0 0 0 0 0 0 0 0 0 0 0 0 0 0 0 0 0 0 0 0 0 0 0 0 0 0 0 0 0 0 0 0 0 0 0 0 0 0 0 0 0 0 0 0 0
0 0 0 0 0 0 0 0 0 0 0 0 0 0 0 0 0 0 0 0 0 0 0 0 0 0 0 0 0 0 0 0 0 0 0 0 0 0 0 0 0 0 0 0 0 0 0 0 0 0 0 0 0 0 0 0 0 0 0 0 0 0 0 0 0 0 0 0 0 0 0 0 0 0 0 0 0 0 0 0 0 0 0 0 0 0 0 0 0 0 0 0 0 0 0 0 0 0 0 0 0 0 0 0 0 0 0 0 0 0 0 0 0 0 0 0 0 0 0 0 0 0 0 0 0 0 0 0 0 0 0 0 0 0 0 0 0 0 0 0 0 0 0 0 0 0 0 0 0 0 0 0 0 0 0 0 0 0 0 0 0 0 0 0 0 0 0 0 0 0 0 0 0 0 0 0 0 0 0 0 0 0 0 0 0 0 0 0 0 0 0 0 0 0 0 0 0 0 0 0 0 0 0 0 0 0 663 700 700 696 690 690 682 664 654 641 627 620 610 605 599 595 588 583 580 581 584 588 591 594 596 597 597 598 600 602 602 602 600 600 600 591 581 580 580 583 589 599 612 628 634 638 643 650 650 650 648 633 623 618 615 612 609 606 603 600 598 600 600 600 600 600 600 600 600 602 604 606 609 610 610 616 619 624 630 630 630 630 631 633 635 639 640 640 640 640 640 641 642 645 648 650 651 654 656 660 660 660 660 660 660 660 660 660 660 660 660 655 653 650 650 650 650 655 661 664 665 667 667 670 670 670 670 670 670 674 678 684 690 696 701 706 709 710 711 713 714 715 716 718 719 721 722 723 725 726 728 731 735 739 741 744 746 748 750 753 755 756 758 759 762 771 780 783 785 788 789 786 784 781 779 776 773 771 765 758 753 747 740 738 737 736 734 732 729 724 720 720 720 724 732 737 742 747 751 756 762 770 780 788 792 794 796 799 801 804 809 813 816 819 820 820 822 824 825 827 828 830 830 830 830 830 830 830 830 830 831 833 834 836 837 838 840 840 840 841 842 842 843 0 0 0 0 0 0 0 0 0 0 0 0 0 0 0 0 0 0 0 0 0 0 0 0 0 0 0 0 0 0 0 0 0 0 0 0 0 0 0 0 0 0 0 0 0 0 0
0 0 0 0 0 0 0 0 0 0 0 0 0 0 0 0 0 0 0 0 0 0 0 0 0 0 0 0 0 0 0 0 0 0 0 0 0 0 0 0 0 0 0 0 0 0 0 0 0 0 0 0 0 0 0 0 0 0 0 0 0 0 0 0 0 0 0 0 0 0 0 0 0 0 0 0 0 0 0 0 0 0 0 0 0 0 0 0 0 0 0 0 0 0 0 0 0 0 0 0 0 0 0 0 0 0 0 0 0 0 0 0 0 0 0 0 0 0 0 0 0 0 0 0 0 0 0 0 0 0 0 0 0 0 0 0 0 0 0 0 0 0 0 0 0 0 0 0 0 0 0 0 0 0 0 0 0 0 0 0 0 0 0 0 0 0 0 0 0 0 0 0 0 0 0 0 0 0 0 0 0 0 0 0 0 0 0 0 0 0 0 0 0 0 0 0 0 0 0 0 0 0 0 0 0 0 665 700 700 696 690 693 691 669 659 654 648 643 619 609 604 600 592 586 581 580 582 585 589 591 593 594 594 595 596 598 599 599 600 600 597 585 580 580 581 586 592 603 616 630 636 641 646 650 650 650 646 634 620 615 612 609 606 604 601 595 595 597 600 600 600 600 600 600 600 600 603 607 610 610 610 610 610 610 621 629 628 627 628 630 633 637 640 640 640 640 640 640 641 644 646 649 652 656 658 660 660 660 660 660 660 660 660 660 660 655 650 650 650 650 650 650 650 660 662 664 666 668 670 670 670 671 671 672 674 677 682 687 692 697 702 707 710 712 714 715 717 718 719 721 722 724 726 727 729 729 731 734 738 741 744 746 748 750 753 755 758 760 762 765 771 779 782 785 787 789 789 786 783 780 777 774 772 768 763 757 751 741 738 736 735 734 732 729 725 721 720 720 720 730 736 742 747 752 756 762 769 779 786 792 797 799 801 803 805 809 812 815 818 820 820 821 822 824 825 826 828 829 830 830 830 830 830 830 830 830 831 833 834 835 837 838 839 840 839 839 839 840 0 0 0 0 0 0 0 0 0 0 0 0 0 0 0 0 0 0 0 0 0 0 0 0 0 0 0 0 0 0 0 0 0 0 0 0 0 0 0 0 0 0 0 0 0 0 0 0
0 0 0 0 0 0 0 0 0 0 0 0 0 0 0 0 0 0 0 0 0 0 0 0 0 0 0 0 0 0 0 0 0 0 0 0 0 0 0 0 0 0 0 0 0 0 0 0 0 0 0 0 0 0 0 0 0 0 0 0 0 0 0 0 0 0 0 0 0 0 0 0 0 0 0 0 0 0 0 0 0 0 0 0 0 0 0 0 0 0 0 0 0 0 0 0 0 0 0 0 0 0 0 0 0 0 0 0 0 0 0 0 0 0 0 0 0 0 0 0 0 0 0 0 0 0 0 0 0 0 0 0 0 0 0 0 0 0 0 0 0 0 0 0 0 0 0 0 0 0 0 0 0 0 0 0 0 0 0 0 0 0 0 0 0 0 0 0 0 0 0 0 0 0 0 0 0 0 0 0 0 0 0 0 0 0 0 0 0 0 0 0 0 0 0 0 0 0 0 0 0 0 0 0 0 0 666 700 700 700 700 700 693 681 672 668 663 655 632 616 609 606 601 589 583 580 580 583 587 590 590 590 590 591 592 595 595 596 596 596 592 581 580 580 583 588 596 608 622 633 639 645 650 650 650 648 638 630 617 612 607 606 604 601 596 590 590 592 600 605 607 606 602 601 604 603 604 608 610 610 610 610 610 610 610 616 622 623 624 626 631 634 636 636 636 637 639 640 641 643 646 648 652 657 660 660 660 660 660 660 660 660 660 660 654 650 650 650 650 650 650 650 656 662 663 665 667 669 670 671 672 673 674 675 676 679 684 688 693 698 703 708 712 714 716 717 719 721 722 724 726 727 729 731 733 734 736 739 741 743 745 748 750 750 754 758 761 765 769 773 779 780 782 784 786 788 788 785 782 779 776 773 770 764 758 754 747 738 735 733 732 731 729 725 721 720 720 720 723 734 741 747 752 755 760 767 776 784 791 797 801 804 806 808 809 811 813 815 817 819 820 820 822 823 824 826 827 829 830 830 830 830 830 830 830 830 831 833 834 835 836 837 837 837 836 836 838 0 0 0 0 0 0 0 0 0 0 0 0 0 0 0 0 0 0 0 0 0 0 0 0 0 0 0 0 0 0 0 0 0 0 0 0 0 0 0 0 0 0 0 0 0 0 0 0 0
0 0 0 0 0 0 0 0 0 0 0 0 0 0 0 0 0 0 0 0 0 0 0 0 0 0 0 0 0 0 0 0 0 0 0 0 0 0 0 0 0 0 0 0 0 0 0 0 0 0 0 0 0 0 0 0 0 0 0 0 0 0 0 0 0 0 0 0 0 0 0 0 0 0 0 0 0 0 0 0 0 0 0 0 0 0 0 0 0 0 0 0 0 0 0 0 0 0 0 0 0 0 0 0 0 0 0 0 0 0 0 0 0 0 0 0 0 0 0 0 0 0 0 0 0 0 0 0 0 0 0 0 0 0 0 0 0 0 0 0 0 0 0 0 0 0 0 0 0 0 0 0 0 0 0 0 0 0 0 0 0 0 0 0 0 0 0 0 0 0 0 0 0 0 0 0 0 0 0 0 0 0 0 0 0 0 0 0 0 0 0 0 0 0 0 0 0 0 0 0 0 0 0 0 0 0 667 700 698 698 700 699 693 686 678 673 666 658 640 624 619 610 603 593 583 580 580 580 584 588 590 590 590 590 590 591 592 592 592 593 588 580 580 580 585 590 600 612 627 636 643 649 650 650 647 642 631 616 610 606 603 603 602 598 591 586 590 599 604 609 611 611 609 608 609 609 609 609 610 610 610 610 610 610 610 610 612 617 620 623 626 628 631 631 631 633 635 638 639 641 644 646 651 657 660 660 660 660 660 660 660 660 656 653 646 650 650 650 650 650 650 654 663 665 666 667 669 670 671 672 674 675 676 677 678 681 685 689 693 698 703 708 712 714 716 719 721 723 725 727 729 730 732 735 737 739 740 742 744 745 747 749 751 754 758 762 766 771 775 779 780 780 781 783 784 786 786 784 782 778 774 771 766 761 752 747 739 735 732 730 729 728 726 722 720 720 720 720 731 737 745 751 756 759 764 771 779 788 794 801 805 808 810 810 810 810 812 814 817 818 819 820 821 822 824 825 826 828 829 830 830 830 830 830 830 830 831 833 833 834 835 835 834 834 834 0 0 0 0 0 0 0 0 0 0 0 0 0 0 0 0 0 0 0 0 0 0 0 0 0 0 0 0 0 0 0 0 0 0 0 0 0 0 0 0 0 0 0 0 0 0 0 0 0 0 0
0 0 0 0 0 0 0 0 0 0 0 0 0 0 0 0 0 0 0 0 0 0 0 0 0 0 0 0 0 0 0 0 0 0 0 0 0 0 0 0 0 0 0 0 0 0 0 0 0 0 0 0 0 0 0 0 0 0 0 0 0 0 0 0 0 0 0 0 0 0 0 0 0 0 0 0 0 0 0 0 0 0 0 0 0 0 0 0 0 0 0 0 0 0 0 0 0 0 0 0 0 0 0 0 0 0 0 0 0 0 0 0 0 0 0 0 0 0 0 0 0 0 0 0 0 0 0 0 0 0 0 0 0 0 0 0 0 0 0 0 0 0 0 0 0 0 0 0 0 0 0 0 0 0 0 0 0 0 0 0 0 0 0 0 0 0 0 0 0 0 0 0 0 0 0 0 0 0 0 0 0 0 0 0 0 0 0 0 0 0 0 0 0 0 0 0 0 0 0 0 0 0 0 0 0 0 669 692 690 690 690 689 688 685 679 672 666 658 643 629 623 612 604 595 584 580 580 580 584 588 590 590 590 590 590 590 590 590 590 590 582 580 580 582 587 593 603 617 631 640 647 650 650 649 643 635 621 606 598 597 596 598 597 593 588 589 592 602 607 611 614 616 616 616 618 618 618 619 619 619 617 615 612 611 611 610 610 611 616 620 621 620 623 629 630 630 632 635 636 638 640 641 648 654 657 660 659 657 655 654 652 649 645 641 642 647 650 653 656 659 661 664 669 669 669 669 670 670 672 675 676 677 678 679 682 686 689 693 697 700 704 708 711 714 717 719 722 725 727 730 731 732 735 737 740 740 741 744 746 748 750 752 755 758 763 768 773 779 780 780 780 780 780 781 783 785 784 783 781 777 773 767 762 751 743 738 734 730 729 728 726 725 723 720 720 720 720 726 737 743 748 754 759 763 767 774 779 789 796 803 808 810 810 810 810 810 812 814 816 817 818 819 820 822 823 824 826 827 827 828 828 828 828 829 830 830 830 831 832 833 833 834 832 831 0 0 0 0 0 0 0 0 0 0 0 0 0 0 0 0 0 0 0 0 0 0 0 0 0 0 0 0 0 0 0 0 0 0 0 0 0 0 0 0 0 0 0 0 0 0 0 0 0 0 0 0
