9.54604 9.726062 9.890519 10.038525 10.169236 10.281864 10.375711 10.450181 10.504828 10.539371 10.55372 10.54795 10.522305 10.477141 10.412917 10.330159 10.22945 10.111421 9.976737 9.826092 9.660209 9.479826 9.285704 9.078609 8.85933 8.628654 8.387383 8.136325 7.876284 7.608082 7.332538 7.050485 6.762755 6.470191 6.173643 5.873966 5.572031 5.268902 4.967136 4.667708 4.371168 4.078086 3.789065 3.504738 3.226148 2.957084 2.698622 2.451128 2.215027 1.997213 1.840415 1.749426 1.720698 1.750786 1.836334 1.974065 2.16077 2.393302 2.668558 2.983481 3.335036 3.720196 4.135925 4.574577 5.014202 5.44276 5.85825 6.258661 6.64018 6.999108 7.331896 7.635162 7.905736 8.140692 8.337424 8.493402 8.604984 8.670344 8.688521 8.659207 8.58278 8.460273 8.293327 8.084118 7.835264 7.549756 7.230885 6.882177 6.507346 6.110264 5.694931 5.270554 4.856713 4.457955 4.077715 3.719451 3.386666 3.082877 2.811638 2.576544 2.381223 2.229337 2.124587 2.070714 2.071491 2.130734 2.252297 2.440076 2.689307 2.955309 3.228279 3.507375 3.791789 4.080719 4.37336 4.66891 4.966564 5.265521 5.564972 5.864121 6.162158 6.458279 6.751688 7.041572 7.32713 7.607562 7.882061 8.149824 8.410049 8.66193 8.904769 9.138898 9.363379 9.576892 9.778192 9.966107 10.139561 10.297536 10.439105 10.563411 10.669666 10.757168 10.825279 10.873551 10.903636 10.915377 10.907845 10.880717 10.834047 10.766912 10.67941 10.572131 10.445868 10.301622 10.140593 9.96417 9.773956 9.571734 9.359494 9.137458 8.90467 8.66193 8.410049 8.149824 7.882061 7.607562 7.32713 7.041568 6.751683 6.458279 6.162155 5.864119 5.564972 5.265521 4.966564 4.66891 4.37336
9.74754 9.932562 10.101779 10.254275 10.389165 10.505615 10.602871 10.680274 10.73733 10.77375 10.789431 10.784498 10.759237 10.714051 10.649437 10.565954 10.464218 10.344873 10.208608 10.056128 9.888174 9.70549 9.508857 9.299046 9.076859 8.843087 8.598542 8.344033 8.080379 7.808395 7.528913 7.242761 6.950783 6.65382 6.352727 6.049577 5.746842 5.445012 5.144576 4.846045 4.549961 4.256891 3.968067 3.687711 3.416669 3.15519 2.903582 2.662209 2.431493 2.212449 2.040425 1.933858 1.88918 1.902909 1.971663 2.092135 2.261095 2.475371 2.731848 3.02746 3.359173 3.723969 4.118844 4.537385 4.961958 5.377587 5.778531 6.163961 6.530352 6.874105 7.191776 7.480123 7.736114 7.956999 8.140346 8.284108 8.3867 8.447037 8.463654 8.434439 8.35968 8.240318 8.077862 7.874314 7.632123 7.354103 7.043385 6.703349 6.337586 5.949865 5.544091 5.13013 4.727128 4.339282 3.969994 3.622695 3.300863 3.008003 2.74766 2.523421 2.338909 2.197785 2.103751 2.060546 2.071947 2.14177 2.273869 2.472135 2.718665 2.977667 3.248153 3.528138 3.813554 4.103486 4.397129 4.693679 4.992335 5.292291 5.592744 5.892894 6.19193 6.489051 6.783458 7.074339 7.360895 7.642324 7.91782 8.188498 8.454676 8.714692 8.966966 9.210003 9.442393 9.662807 9.869998 10.062801 10.240141 10.401009 10.544476 10.669689 10.779737 10.876315 10.956901 11.019222 11.061286 11.081479 11.078783 11.052941 11.004302 10.933615 10.841925 10.730555 10.600491 10.450397 10.281137 10.094123 9.890966 9.673471 9.443648 9.203697 8.956017 8.703187 8.447797 8.186578 7.917819 7.642324 7.360895 7.074336 6.783454 6.489051 6.191926 5.89289 5.592744 5.292291 4.992335 4.693679 4.397129
9.936325 10.12613 10.299923 10.456762 10.595722 10.715922 10.816547 10.896873 10.956346 10.994635 11.011664 11.007603 10.982797 10.937693 10.872832 10.788804 10.686234 10.565801 10.428186 10.274123 10.104357 9.919647 9.720778 9.508541 9.283733 9.047167 8.799648 8.542001 8.275041 7.999592 7.716486 7.426558 7.130659 6.831712 6.531925 6.231724 5.931548 5.631859 5.333138 5.035894 4.741149 4.453567 4.174258 3.903357 3.641053 3.387593 3.14328 2.908473 2.683592 2.469115 2.28189 2.158231 2.096128 2.092076 2.14266 2.244556 2.394506 2.589324 2.82588 3.101104 3.411962 3.755454 4.128595 4.525872 4.930436 5.331793 5.717674 6.087206 6.437671 6.765569 7.067567 7.340549 7.581635 7.788222 7.95805 8.08923 8.180316 8.230356 8.238935 8.206196 8.132527 8.016336 7.858429 7.660673 7.425358 7.155145 6.85301 6.522197 6.166166 5.788584 5.39326 4.990453 4.598983 4.222844 3.865389 3.530017 3.220178 2.939354 2.691076 2.478913 2.306482 2.177437 2.095471 2.06432 2.087754 2.169588 2.313665 2.522597 2.760954 3.010906 3.272078 3.544119 3.826691 4.117184 4.411428 4.708581 5.007838 5.308396 5.609452 5.910203 6.209839 6.507563 6.802571 7.094054 7.382866 7.671543 7.958353 8.241456 8.51909 8.789588 9.051359 9.302899 9.542794 9.769711 9.982403 10.179709 10.360554 10.527593 10.686831 10.835306 10.969976 11.088042 11.186934 11.264347 11.318206 11.346739 11.348776 11.324188 11.273447 11.19737 11.097012 10.973725 10.829123 10.665086 10.483776 10.286289 10.070613 9.838284 9.591335 9.331994 9.062694 8.78605 8.504869 8.22214 7.941012 7.663239 7.381212 7.094053 6.802567 6.507563 6.209837 5.910198 5.609452 5.308396 5.007838 4.708581 4.411428
10.111462 10.3058 10.483947 10.644938 10.787815 10.911665 11.015604 11.098834 11.16072 11.200882 11.219286 11.216158 11.191908 11.14704 11.082129 10.997768 10.894613 10.773339 10.634653 10.479286 10.307995 10.121551 9.92075 9.706386 9.479273 9.240221 8.990053 8.729588 8.459646 8.18106 7.894657 7.603501 7.310328 7.015523 6.719483 6.422629 6.125392 5.828227 5.531712 5.240425 4.95661 4.6803 4.411573 4.15055 3.897422 3.652424 3.415854 3.188067 2.969478 2.760565 2.565287 2.423056 2.34209 2.318866 2.349949 2.431991 2.561715 2.73592 2.951472 3.205293 3.494356 3.815676 4.166297 4.541324 4.923966 5.307292 5.677589 6.030402 6.364232 6.675671 6.961509 7.218751 7.444654 7.636764 7.792959 7.911498 7.991061 8.0308 8.030361 7.989923 7.910191 7.792392 7.63807 7.446213 7.217958 6.95582 6.662634 6.341512 5.995801 5.629051 5.244978 4.85393 4.474597 4.110862 3.766033 3.443464 3.14657 2.878808 2.643682 2.444747 2.2856 2.169881 2.10127 2.083494 2.120311 2.215524 2.372969 2.586163 2.815372 3.055915 3.307415 3.569525 3.841909 4.124248 4.416202 4.713555 5.013013 5.313773 5.615027 5.91598 6.215818 6.513741 6.81275 7.114995 7.418396 7.720937 8.020683 8.315782 8.604457 8.885026 9.155887 9.415531 9.662531 9.895558 10.11337 10.323445 10.530435 10.730505 10.920077 11.09582 11.254659 11.393751 11.510512 11.602606 11.667932 11.704634 11.711372 11.688154 11.635509 11.554252 11.445444 11.310447 11.150887 10.968677 10.766007 10.54536 10.309486 10.061037 9.797425 9.519178 9.228755 8.928819 8.622215 8.311983 8.001324 7.693616 7.392385 7.100631 6.808947 6.513741 6.215815 5.915977 5.615027 5.313773 5.013013 4.713555 4.416202
10.272103 10.470681 10.652911 10.817809 10.964403 11.091743 11.198902 11.285001 11.349296 11.391342 11.411158 11.409063 11.385536 11.34112 11.276394 11.191978 11.088526 10.966712 10.827253 10.670892 10.498388 10.310528 10.10811 9.891946 9.662853 9.421646 9.169157 8.906205 8.633619 8.353758 8.070636 7.78475 7.496473 7.20618 6.914263 6.621132 6.327214 6.035326 5.750225 5.471963 5.200511 4.935886 4.67816 4.427451 4.183936 3.947845 3.71947 3.499163 3.287331 3.08445 2.891053 2.72908 2.627853 2.58411 2.594396 2.655348 2.763677 2.91617 3.109683 3.341146 3.607537 3.905888 4.233272 4.585216 4.945069 5.306292 5.660207 5.995685 6.312234 6.606681 6.875927 7.117098 7.327575 7.505047 7.647517 7.753367 7.82139 7.850822 7.841368 7.793232 7.7071 7.584164 7.426079 7.234945 7.012935 6.759102 6.475187 6.16418 5.829306 5.47401 5.101912 4.723139 4.356463 4.005748 3.67425 3.365279 3.082205 2.828453 2.607495 2.422862 2.278127 2.176911 2.122879 2.119733 2.171219 2.281122 2.453216 2.661455 2.881155 3.111928 3.353401 3.605227 3.867071 4.138617 4.419565 4.709635 5.007838 5.308396 5.609452 5.910203 6.21389 6.524363 6.839411 7.156846 7.474565 7.790527 8.102786 8.409464 8.708769 8.999008 9.278566 9.545924 9.799652 10.047963 10.298738 10.547615 10.790467 11.023411 11.242826 11.44534 11.627845 11.787477 11.921616 12.027911 12.104239 12.148792 12.160357 12.138777 12.084507 11.998346 11.881355 11.734893 11.560604 11.360415 11.136567 10.891569 10.628243 10.349684 10.059264 9.760219 9.44918 9.126473 8.794993 8.457831 8.118239 7.779651 7.445658 7.119988 6.806513 6.507563 6.209837 5.910198 5.609452 5.308396 5.007838 4.708581 4.411428
10.417482 10.619971 10.805967 10.974479 11.124521 11.255124 11.365335 11.454227 11.52092 11.564867 11.586181 11.585301 11.562744 11.519059 11.454832 11.370679 11.267248 11.145226 11.005328 10.848302 10.674919 10.485973 10.282277 10.064646 9.833905 9.590888 9.336418 9.07181 8.802007 8.528373 8.251255 7.971007 7.687994 7.402583 7.11516 6.826608 6.542904 6.265598 5.994565 5.729725 5.471038 5.218514 4.972217 4.732253 4.498791 4.272058 4.052335 3.839969 3.635363 3.438989 3.251375 3.077291 2.954447 2.888877 2.877116 2.915786 3.001593 3.131318 3.301817 3.510019 3.752918 4.027566 4.33107 4.659208 4.995476 5.333096 5.66755 5.985323 6.284003 6.56097 6.81323 7.038028 7.232868 7.395552 7.524205 7.617321 7.673786 7.692908 7.674446 7.618614 7.5261 7.398047 7.23605 7.042128 6.818686 6.568503 6.293681 5.993161 5.669592 5.326314 4.966852 4.600812 4.247238 3.910087 3.592554 3.297895 3.02944 2.79057 2.584722 2.415395 2.286134 2.200532 2.162227 2.174902 2.242279 2.368115 2.549118 2.747741 2.95757 3.178215 3.409306 3.650496 3.901452 4.161861 4.431426 4.709867 4.99692 5.292336 5.594912 5.907355 6.228166 6.555014 6.885628 7.217795 7.549387 7.878349 8.2027 8.520551 8.830095 9.12962 9.417497 9.697693 9.985611 10.277891 10.569838 10.857003 11.135204 11.400514 11.649262 11.878049 12.08373 12.263417 12.414483 12.534563 12.621571 12.67381 12.690191 12.670399 12.614738 12.52393 12.399016 12.241345 12.052564 11.83462 11.589777 11.320598 11.029957 10.72102 10.397251 10.062385 9.720422 9.374077 9.018274 8.654755 8.286839 7.918013 7.551922 7.192369 6.84329 6.508737 6.19287 5.89289 5.592744 5.292291 4.992335 4.693679 4.397129
10.546946 10.752979 10.942392 11.114181 11.267348 11.400911 11.51391 11.605392 11.674435 11.720348 11.74338 11.744007 11.722742 11.680137 11.616758 11.533222 11.430176 11.3083 11.168312 11.010972 10.837054 10.647369 10.442732 10.223979 9.991941 9.747453 9.494103 9.235887 8.973149 8.706237 8.435483 8.161236 7.88385 7.603687 7.323763 7.049803 6.781792 6.51956 6.262979 6.011953 5.766434 5.526424 5.291977 5.06319 4.840227 4.6233 4.412689 4.208729 4.011821 3.822428 3.641082 3.468371 3.323125 3.234465 3.199451 3.214696 3.276904 3.382853 3.529405 3.713496 3.932136 4.182404 4.46144 4.765137 5.077089 5.390462 5.702035 6.001712 6.281976 6.541011 6.775924 6.984071 7.163067 7.310823 7.425572 7.505904 7.550785 7.559591 7.53212 7.468606 7.369725 7.236589 7.070737 6.874111 6.649038 6.398197 6.124586 5.831501 5.519654 5.188914 4.842701 4.489829 4.149737 3.826624 3.52362 3.243926 2.990816 2.767897 2.580316 2.430975 2.322471 2.257613 2.239416 2.271113 2.356123 2.498033 2.672837 2.857845 3.053142 3.259013 3.47595 3.704646 3.944366 4.193297 4.45114 4.717619 4.992579 5.283872 5.595072 5.923533 6.260999 6.603735 6.949449 7.295902 7.640937 7.982476 8.318521 8.647157 8.966562 9.275483 9.591046 9.918516 10.252622 10.58835 10.92093 11.245847 11.558869 11.856018 12.133598 12.388172 12.616577 12.815905 12.983529 13.117106 13.214617 13.274459 13.295594 13.277614 13.220682 13.125416 12.992802 12.824152 12.621109 12.385631 12.120003 11.82682 11.50902 11.169833 10.812815 10.441806 10.060919 9.67453 9.287245 8.897904 8.502276 8.103855 7.706358 7.313641 6.929714 6.558695 6.204813 5.872398 5.564972 5.265521 4.966564 4.66891 4.37336
10.65995 10.869163 11.061628 11.236332 11.392271 11.528456 11.643912 11.737694 11.808907 11.856998 11.88208 11.884573 11.864977 11.823815 11.761663 11.679119 11.576822 11.455459 11.315748 11.158448 10.984349 10.794271 10.589042 10.369513 10.137013 9.897271 9.652001 9.401541 9.146226 8.886389 8.622356 8.354464 8.083161 7.814467 7.551583 7.294267 7.042303 6.795514 6.553758 6.316933 6.084983 5.857898 5.635722 5.418544 5.206516 4.999846 4.798801 4.603714 4.414976 4.233046 4.058449 3.891774 3.735352 3.622395 3.562969 3.553693 3.591269 3.672484 3.794205 3.953384 4.147052 4.372313 4.626343 4.90503 5.191983 5.480518 5.767499 6.047381 6.308718 6.549393 6.766618 6.957849 7.1208 7.253488 7.354239 7.42173 7.454999 7.453477 7.416999 7.345813 7.240587 7.102401 6.932753 6.733519 6.506945 6.255632 5.982491 5.690726 5.383808 5.06487 4.732476 4.39321 4.06693 3.758271 3.471624 3.213686 2.986438 2.79172 2.631613 2.508433 2.424722 2.383229 2.386914 2.438933 2.542631 2.69243 2.85417 3.024116 3.202372 3.389248 3.585266 3.791153 4.007832 4.236412 4.478182 4.734203 5.011393 5.309588 5.626779 5.96103 6.310476 6.668623 7.028978 7.389276 7.747334 8.101047 8.448398 8.787451 9.121658 9.473125 9.839527 10.215269 10.594993 10.973595 11.346233 11.708354 12.055658 12.384142 12.690069 12.969988 13.22071 13.439333 13.623237 13.770123 13.878016 13.945397 13.97123 13.955052 13.896902 13.797304 13.657153 13.477721 13.260626 13.007823 12.721603 12.404612 12.059815 11.690535 11.300388 10.893329 10.473596 10.045698 9.614388 9.18464 8.759775 8.33242 7.904211 7.479068 7.061071 6.654408 6.263371 5.892363 5.545854 5.228374 4.930631 4.634372 4.340219
10.756092 10.968115 11.163273 11.340546 11.498928 11.637426 11.755079 11.850971 11.924325 11.974686 12.002046 12.006709 11.989115 11.949763 11.889199 11.808014 11.706841 11.586358 11.447284 11.29038 11.116449 10.926322 10.720849 10.502883 10.27809 10.047097 9.810253 9.567898 9.320352 9.067935 8.810966 8.550695 8.294606 8.044037 7.798707 7.558367 7.322795 7.091805 6.865244 6.643004 6.425017 6.21126 6.001772 5.796632 5.595977 5.40001 5.208987 5.023235 4.843137 4.669149 4.501788 4.341638 4.18935 4.054391 3.969451 3.934608 3.946571 4.00214 4.098194 4.231709 4.399732 4.599403 4.82794 5.081087 5.342401 5.605548 5.867474 6.124946 6.366912 6.588823 6.788029 6.962078 7.108789 7.226264 7.312919 7.367501 7.389118 7.377249 7.331759 7.252908 7.141359 6.998169 6.824788 6.623038 6.395103 6.1435 5.871068 5.580931 5.276472 4.961318 4.639305 4.314131 4.006827 3.725347 3.470718 3.244216 3.047375 2.881965 2.750003 2.653738 2.595636 2.578379 2.604841 2.678091 2.800132 2.942048 3.090276 3.24472 3.405497 3.57295 3.747627 3.930299 4.121924 4.323668 4.541849 4.788691 5.064493 5.367943 5.690669 6.029542 6.382677 6.748277 7.122361 7.496073 7.866746 8.232249 8.590535 8.952362 9.338091 9.742231 10.158847 10.582236 11.006951 11.427819 11.839941 12.238695 12.619752 12.979076 13.312901 13.617748 13.890446 14.128078 14.328057 14.488107 14.606306 14.681168 14.711663 14.697265 14.63793 14.534071 14.386511 14.196461 13.9655 13.695556 13.388947 13.04833 12.676722 12.277496 11.854372 11.411395 10.952919 10.4836 10.008342 9.532286 9.060762 8.599018 8.140802 7.683988 7.232718 6.791252 6.363952 5.955285 5.569789 5.212066 4.886759 4.590205 4.297841
10.835093 11.049574 11.24709 11.426625 11.587173 11.727759 11.847447 11.945382 12.020895 12.073569 12.103336 12.110379 12.095056 12.057817 11.999176 11.919699 11.820002 11.700754 11.562664 11.406509 11.23309 11.04326 10.84201 10.633482 10.418068 10.196152 9.968072 9.734154 9.49471 9.250042 9.002695 8.760302 8.523185 8.291037 8.063568 7.840528 7.62168 7.406836 7.195832 6.988548 6.784908 6.584881 6.388491 6.195807 6.006959 5.822137 5.641591 5.465635 5.294648 5.129076 4.969435 4.816301 4.670324 4.532213 4.42087 4.359468 4.344891 4.373951 4.443554 4.550694 4.69245 4.865994 5.068591 5.29568 5.530747 5.767991 6.004432 6.23725 6.45937 6.662122 6.842983 6.999598 7.129864 7.231973 7.304418 7.346018 7.355933 7.333688 7.279175 7.192667 7.074815 6.92666 6.749612 6.545446 6.316282 6.064577 5.79309 5.504872 5.203236 4.891731 4.580096 4.27889 4.004951 3.756819 3.534789 3.340052 3.174061 3.038509 2.93533 2.866689 2.834968 2.842752 2.892817 2.988124 3.113288 3.243261 3.377549 3.516061 3.65894 3.80655 3.959483 4.118546 4.284744 4.467453 4.677359 4.914149 5.177674 5.467971 5.785251 6.127358 6.483768 6.851715 7.229473 7.614496 7.997388 8.374304 8.763219 9.180935 9.620994 10.077117 10.54326 11.013622 11.482684 11.945189 12.396191 12.831018 13.245309 13.634989 13.996281 14.325707 14.620066 14.876481 15.09236 15.265466 15.393912 15.47622 15.511352 15.498726 15.438223 15.330172 15.175302 14.974766 14.730088 14.443196 14.116382 13.752323 13.354082 12.925089 12.469148 11.990393 11.493317 10.982698 10.463605 9.94135 9.42145 8.909579 8.411548 7.923811 7.440089 6.964688 6.502038 6.056679 5.633213 5.236304 4.870663 4.541026 4.246398
10.896784 11.113395 11.312977 11.494514 11.657015 11.799528 11.921161 12.021133 12.098828 12.153858 12.186107 12.195673 12.182826 12.147959 12.091527 12.014071 11.91618 11.798499 11.661741 11.506663 11.334404 11.151479 10.960522 10.761978 10.556259 10.343735 10.124735 9.89957 9.668542 9.435609 9.207912 8.98529 8.767413 8.553963 8.344652 8.139214 7.937414 7.739051 7.543952 7.351989 7.163073 6.977165 6.794275 6.614462 6.437847 6.264608 6.094985 5.929282 5.767873 5.611195 5.459752 5.314126 5.174953 5.042946 4.919371 4.830481 4.788492 4.790241 4.832654 4.912758 5.027665 5.174589 5.350833 5.551338 5.759594 5.970442 6.180991 6.388502 6.589022 6.772233 6.934432 7.073347 7.186964 7.273547 7.33166 7.360189 7.358342 7.325681 7.262125 7.167954 7.043822 6.890742 6.710093 6.503608 6.273355 6.021725 5.751415 5.465407 5.170319 4.879449 4.594864 4.31913 4.069859 3.853141 3.663907 3.501254 3.366538 3.261363 3.187567 3.147216 3.142586 3.176149 3.250559 3.359846 3.474821 3.592426 3.712347 3.834511 3.959083 4.086457 4.217263 4.352356 4.503459 4.680046 4.881583 5.107764 5.35849 5.633858 5.934141 6.259774 6.61133 6.98124 7.360042 7.746069 8.137573 8.550804 8.997563 9.471058 9.964681 10.472033 10.986967 11.503599 12.016319 12.519819 13.009092 13.479431 13.926438 14.34602 14.734385 15.088037 15.403803 15.678789 15.910433 16.096516 16.235157 16.324888 16.36465 16.353804 16.292164 16.17997 16.017883 15.806981 15.548747 15.245063 14.898218 14.510902 14.086212 13.627636 13.139049 12.62469 12.089171 11.537411 10.974642 10.40634 9.838217 9.276146 8.726145 8.194292 7.678689 7.170247 6.673196 6.19214 5.731752 5.296756 4.891926 4.522061 4.191966
10.941089 11.159552 11.36094 11.544265 11.70855 11.85288 11.976412 12.078416 12.158318 12.215749 12.250541 12.262735 12.252528 12.220236 12.166269 12.091114 11.995331 11.879534 11.744425 11.591699 11.428473 11.256435 11.07605 10.887781 10.69204 10.489206 10.279584 10.063469 9.846126 9.634039 9.426862 9.224245 9.025853 8.831364 8.640484 8.452942 8.268496 8.086936 7.908079 7.731789 7.557964 7.386555 7.217557 7.051024 6.88706 6.725834 6.567575 6.41258 6.261209 6.113892 5.971131 5.833495 5.701624 5.576218 5.458054 5.350017 5.279805 5.253491 5.268033 5.320491 5.408017 5.527866 5.677391 5.850761 6.031659 6.215648 6.399914 6.581807 6.758929 6.92222 7.06544 7.186395 7.283145 7.354032 7.397682 7.413035 7.399352 7.356225 7.283598 7.181759 7.051354 6.893388 6.709206 6.500499 6.269289 6.017912 5.749168 5.476782 5.20855 4.94523 4.687855 4.438105 4.21195 4.018242 3.858301 3.728029 3.624991 3.550679 3.506825 3.495372 3.518474 3.578468 3.673854 3.776858 3.881044 3.985864 4.091012 4.196428 4.302305 4.409068 4.517414 4.640205 4.786892 4.956756 5.149316 5.364322 5.601734 5.861706 6.144577 6.450844 6.781141 7.136237 7.513958 7.899843 8.317694 8.784864 9.288621 9.817048 10.363402 10.921181 11.484132 12.04628 12.601951 13.145781 13.672706 14.177989 14.657207 15.106243 15.521301 15.898884 16.235802 16.529184 16.776474 16.975464 17.124275 17.221416 17.265812 17.25677 17.194029 17.077759 16.908545 16.687397 16.415737 16.095419 15.728721 15.318332 14.867382 14.379412 13.858369 13.308599 12.734829 12.14212 11.535862 10.921718 10.305579 9.693533 9.091798 8.50668 7.944531 7.403551 6.873074 6.357352 5.861127 5.38918 4.94635 4.537488 4.167461
10.968025 11.188078 11.391059 11.575987 11.741927 11.887997 12.013395 12.117429 12.199564 12.259423 12.296819 12.311729 12.304291 12.274755 12.223466 12.150865 12.057466 11.943859 11.812408 11.67028 11.518541 11.357647 11.188087 11.010351 10.824863 10.631989 10.432018 10.231185 10.035526 9.844658 9.658201 9.475796 9.297112 9.121826 8.949635 8.780262 8.613461 8.449011 8.28672 8.126444 7.968066 7.811524 7.656807 7.50395 7.353048 7.20426 7.057801 6.913957 6.773081 6.635593 6.501988 6.372827 6.248743 6.130437 6.018682 5.914314 5.821411 5.766346 5.752392 5.776646 5.836306 5.928673 6.051147 6.196781 6.349804 6.506491 6.664108 6.820086 6.972288 7.115267 7.239193 7.341918 7.421582 7.476591 7.505633 7.507698 7.48209 7.428438 7.346699 7.237175 7.100509 6.937685 6.750027 6.539193 6.307159 6.058229 5.809674 5.564979 5.324471 5.088762 4.858764 4.635694 4.432612 4.261524 4.123724 4.02075 3.949747 3.906743 3.893329 3.911313 3.9627 4.047678 4.141466 4.235256 4.32824 4.419872 4.509852 4.598141 4.684953 4.770753 4.868233 4.988231 5.129811 5.292304 5.475283 5.678557 5.902147 6.146278 6.411346 6.697919 7.006691 7.338491 7.694255 8.100386 8.565289 9.077435 9.630744 10.213176 10.811375 11.418717 12.028855 12.635742 13.23363 13.817101 14.381058 14.920717 15.431645 15.909705 16.351093 16.7523 17.11015 17.421768 17.6846 17.896437 18.05539 18.159956 18.209005 18.201803 18.138021 18.017752 17.841503 17.610224 17.325283 16.988491 16.602104 16.168827 15.691815 15.174644 14.621355 14.036387 13.424578 12.791151 12.141644 11.481903 10.818016 10.156274 9.503117 8.865067 8.248704 7.660566 7.097402 6.548087 6.017146 5.509428 5.029826 4.58325 4.174619
10.977668 11.199078 11.403454 11.589838 11.757325 11.905067 12.032298 12.138364 12.222743 12.285065 12.325113 12.342821 12.338263 12.31163 12.263211 12.193391 12.102633 11.993936 11.874229 11.744189 11.604189 11.454686 11.296192 11.129217 10.954226 10.771562 10.587982 10.409495 10.235697 10.066192 9.900617 9.738611 9.579834 9.423966 9.2707 9.11976 8.970879 8.823833 8.678422 8.534484 8.391896 8.250585 8.110519 7.971726 7.834291 7.698353 7.564122 7.431869 7.301939 7.17474 7.050759 6.930554 6.814747 6.704034 6.599189 6.501038 6.410481 6.33157 6.288561 6.284116 6.315476 6.379996 6.475137 6.592362 6.71702 6.845987 6.976603 7.106379 7.23313 7.354668 7.458979 7.543211 7.605559 7.644498 7.658777 7.647429 7.609797 7.545542 7.454644 7.33741 7.194479 7.026825 6.83575 6.622877 6.394586 6.169114 5.947869 5.730743 5.517923 5.309896 5.107449 4.911682 4.731908 4.583497 4.467936 4.386673 4.341374 4.329955 4.347411 4.395279 4.473958 4.560993 4.647122 4.731285 4.812669 4.890722 4.965159 5.035956 5.103357 5.178352 5.274619 5.391085 5.526863 5.681335 5.854135 6.045136 6.254426 6.482293 6.729201 6.995785 7.282803 7.591144 7.944497 8.373253 8.874851 9.430838 10.025819 10.653725 11.302773 11.958769 12.615231 13.266036 13.90538 14.527788 15.128136 15.701607 16.24374 16.750399 17.21775 17.642307 18.020874 18.350578 18.628859 18.853497 19.022581 19.134583 19.18833 19.183014 19.118263 18.994081 18.810911 18.569622 18.27154 17.918432 17.512537 17.05656 16.553675 16.007523 15.422209 14.802273 14.152684 13.478794 12.786316 12.081279 11.369966 10.65888 9.954678 9.264112 8.593982 7.951059 7.342033 6.760211 6.195719 5.653452 5.138354 4.65539 4.209526
10.97014 11.192698 11.398294 11.586001 11.754935 11.904284 12.033316 12.141403 12.228039 12.292845 12.335583 12.35615 12.354568 12.330973 12.285595 12.21876 12.133958 12.03782 11.930752 11.813038 11.685031 11.547166 11.399955 11.243961 11.079689 10.913976 10.753306 10.597248 10.4454 10.297384 10.152822 10.01137 9.872681 9.736432 9.602314 9.470043 9.339345 9.209984 9.081751 8.954467 8.828003 8.702268 8.577221 8.452871 8.329293 8.206614 8.08503 7.964799 7.846256 7.729802 7.615912 7.505132 7.398085 7.295461 7.198021 7.106596 7.022079 6.945427 6.879481 6.8459 6.84859 6.884955 6.952519 7.040584 7.136418 7.237265 7.340544 7.443846 7.544997 7.643818 7.728209 7.793672 7.838471 7.861148 7.860489 7.835593 7.78583 7.710891 7.610772 7.485793 7.336586 7.164122 6.969676 6.760882 6.556792 6.357936 6.163781 5.974088 5.788918 5.608634 5.43391 5.265728 5.110049 4.984357 4.891161 4.831808 4.807847 4.821012 4.869474 4.945693 5.028085 5.108978 5.187035 5.26117 5.330564 5.394666 5.453199 5.506163 5.561654 5.636882 5.73115 5.843337 5.972613 6.118421 6.280462 6.458671 6.653206 6.864422 7.092855 7.3392 7.60428 7.906962 8.283652 8.732966 9.252341 9.839124 10.474621 11.140841 11.831791 12.535431 13.237307 13.93118 14.611191 15.271823 15.907904 16.514605 17.087446 17.622265 18.115244 18.562862 18.961939 19.30958 19.603226 19.840618 20.019838 20.139303 20.197796 20.194447 20.128807 20.000813 19.810833 19.559671 19.2486 18.879341 18.45412 17.975636 17.44709 16.872177 16.255075 15.600431 14.913331 14.199278 13.46416 12.714176 11.955824 11.195814 10.44103 9.698441 8.975088 8.277967 7.613987 6.989684 6.392854 5.817305 5.268033 4.750056 4.268387
10.945608 11.169123 11.37578 11.564672 11.734958 11.885849 12.01664 12.126727 12.215614 12.282912 12.328374 12.351854 12.353331 12.332886 12.2907 12.230532 12.158829 12.075793 11.981581 11.87643 11.760663 11.634691 11.499011 11.354198 11.206898 11.064587 10.926846 10.793254 10.663422 10.536967 10.413534 10.292768 10.174325 10.05788 9.943119 9.829743 9.717478 9.606068 9.495296 9.384974 9.274955 9.165134 9.055458 8.945925 8.836585 8.727564 8.619036 8.511252 8.404533 8.299271 8.19593 8.095047 7.997238 7.903183 7.813644 7.729444 7.651474 7.58069 7.518105 7.465094 7.4388 7.446763 7.486459 7.544611 7.611191 7.683549 7.759177 7.835751 7.911135 7.986207 8.050368 8.096791 8.12381 8.130014 8.114253 8.075659 8.013645 7.927926 7.818515 7.685744 7.530251 7.352982 7.161289 6.975944 6.797461 6.624891 6.457583 6.295169 6.137594 5.985103 5.838253 5.697916 5.567356 5.464388 5.393644 5.356348 5.353917 5.387941 5.456482 5.53577 5.613489 5.687818 5.757391 5.821111 5.878141 5.927934 5.970224 6.009593 6.066161 6.14086 6.232322 6.339478 6.461559 6.598077 6.748795 6.913719 7.093083 7.287308 7.496991 7.722897 7.978303 8.304937 8.703834 9.172444 9.708242 10.308668 10.971005 11.674372 12.400269 13.142808 13.889139 14.625195 15.345057 16.043163 16.714317 17.35366 17.956694 18.519253 19.037497 19.507906 19.927277 20.292717 20.601633 20.85175 21.041107 21.168074 21.231369 21.23007 21.163645 21.031956 20.8353 20.574415 20.250505 19.86527 19.420898 18.920109 18.366125 17.762688 17.114061 16.424986 15.700686 14.946813 14.16942 13.374906 12.569964 11.761526 10.956695 10.162676 9.386739 8.636105 7.917912 7.239175 6.604669 5.997154 5.415079 4.863514 4.347512
10.904276 11.128556 11.33611 11.52607 11.697606 11.849962 11.982466 12.094519 12.185634 12.255424 12.303619 12.330048 12.334647 12.317452 12.282259 12.235498 12.177221 12.107451 12.026281 11.933909 11.830616 11.716784 11.592896 11.464689 11.3412 11.222244 11.107408 10.996285 10.888498 10.783676 10.681461 10.581502 10.483451 10.386983 10.29177 10.197507 10.103906 10.010707 9.917675 9.824606 9.731342 9.637766 9.543805 9.449443 9.354722 9.259744 9.164675 9.069756 8.975289 8.881659 8.789318 8.698793 8.610691 8.525692 8.444543 8.368064 8.297147 8.232739 8.175853 8.12755 8.088942 8.068702 8.07989 8.107663 8.1446 8.188126 8.235816 8.285421 8.334875 8.385388 8.429023 8.456142 8.465145 8.454672 8.423629 8.371184 8.296791 8.200185 8.081409 7.940793 7.778977 7.601461 7.431324 7.270272 7.116955 6.970309 6.829567 6.694249 6.564183 6.4395 6.320643 6.208372 6.104192 6.023915 5.975647 5.960481 5.979686 6.026573 6.08526 6.153839 6.22633 6.293679 6.354376 6.4073 6.451605 6.486748 6.514039 6.553978 6.611424 6.68473 6.77257 6.873946 6.988148 7.11476 7.253619 7.404808 7.568621 7.745552 7.936269 8.148396 8.426695 8.776986 9.196708 9.683328 10.234357 10.847292 11.519572 12.248023 13.007713 13.781881 14.564776 15.342089 16.100956 16.835775 17.541313 18.212694 18.845404 19.435255 19.978409 20.471325 20.91079 21.29388 21.617983 21.880795 22.080294 22.214802 22.282978 22.283823 22.21672 22.081469 21.878273 21.607815 21.27124 20.870205 20.406883 19.883999 19.304802 18.673092 17.993208 17.270016 16.508856 15.715542 14.896298 14.057725 13.206715 12.35042 11.496176 10.651413 9.823635 9.020292 8.248747 7.516227 6.829725 6.189278 5.575828 4.992151 4.443343
10.846367 11.071231 11.279531 11.470421 11.643099 11.796842 11.930984 12.04495 12.138258 12.210517 12.261442 12.290835 12.298599 12.288314 12.266619 12.233458 12.188707 12.13233 12.064363 11.984945 11.89432 11.79283 11.684909 11.580946 11.481289 11.385663 11.29371 11.205056 11.119346 11.036213 10.955301 10.876258 10.798739 10.722407 10.646927 10.571983 10.497279 10.422539 10.347511 10.271982 10.195778 10.118763 10.040852 9.962009 9.88227 9.801718 9.720503 9.638852 9.557056 9.475492 9.394593 9.314883 9.23696 9.161488 9.089213 9.020954 8.957586 8.900061 8.849385 8.806621 8.772871 8.749299 8.735987 8.732988 8.739931 8.754323 8.773815 8.796239 8.819605 8.845124 8.867785 8.875346 8.866098 8.838748 8.79224 8.725788 8.638882 8.531285 8.403054 8.254531 8.08848 7.929163 7.781705 7.644378 7.515731 7.394598 7.280098 7.171643 7.068952 6.972039 6.881242 6.797195 6.720858 6.663199 6.637357 6.643511 6.66786 6.703598 6.749003 6.802516 6.862773 6.922719 6.974152 7.015914 7.047153 7.06734 7.092306 7.134462 7.191856 7.262888 7.346294 7.441139 7.546795 7.662911 7.789406 7.926432 8.074361 8.233753 8.407516 8.638781 8.941956 9.314394 9.753542 10.256888 10.82198 11.446354 12.12752 12.862906 13.647729 14.452415 15.263733 16.075895 16.87289 17.643627 18.382841 19.085642 19.74749 20.36419 20.931883 21.447018 21.906355 22.30695 22.646154 22.92162 23.131273 23.273376 23.346506 23.349598 23.281944 23.14326 22.933678 22.653812 22.30474 21.88809 21.406027 20.86126 20.257092 19.597378 18.886543 18.129559 17.331915 16.499586 15.638973 14.756869 13.860391 12.9569 12.053962 11.159245 10.280479 9.425347 8.601435 7.816176 7.076768 6.390133 5.746735 5.132476 4.552444
10.772139 10.997405 11.206291 11.397975 11.571679 11.7267 11.862396 11.978204 12.073645 12.148334 12.201958 12.234306 12.24851 12.251596 12.243506 12.223973 12.19282 12.149929 12.095281 12.028956 11.951136 11.864752 11.781195 11.701596 11.625764 11.553467 11.484402 11.418238 11.354638 11.293252 11.233732 11.175722 11.118875 11.062837 11.007273 10.951855 10.896266 10.840224 10.783459 10.725746 10.666893 10.606745 10.545208 10.48223 10.417825 10.352066 10.28509 10.21711 10.148399 10.07932 10.010303 9.941858 9.87457 9.809094 9.746176 9.686617 9.631297 9.581157 9.537198 9.500482 9.472112 9.453234 9.440763 9.422445 9.400475 9.38547 9.376547 9.371607 9.36874 9.369271 9.370293 9.358055 9.330339 9.285909 9.223762 9.143147 9.043592 8.92489 8.787108 8.630795 8.477104 8.338556 8.213074 8.098839 7.994305 7.898205 7.809558 7.727669 7.652143 7.582891 7.520131 7.464383 7.416475 7.38238 7.371153 7.373638 7.387735 7.411523 7.443244 7.481311 7.524343 7.571105 7.612894 7.643144 7.660983 7.673646 7.702088 7.745456 7.801851 7.869724 7.94788 8.035458 8.13191 8.236965 8.350622 8.473107 8.604863 8.746527 8.931532 9.188624 9.515029 9.908094 10.365278 10.884089 11.462109 12.096913 12.786064 13.527064 14.317325 15.14795 15.986633 16.824362 17.654888 18.46072 19.232887 19.966465 20.6569 21.299984 21.891836 22.428888 22.907871 23.325819 23.680035 23.968113 24.187931 24.337677 24.415848 24.421288 24.353212 24.211239 23.99543 23.706314 23.344929 22.912863 22.412252 21.845835 21.216942 20.529501 19.788033 18.997623 18.163918 17.293037 16.391594 15.466565 14.525287 13.575352 12.624547 11.680773 10.751993 9.846118 8.970947 8.134131 7.343063 6.604836 5.924399 5.281144 4.671522
10.68187 10.907353 11.116661 11.308986 11.483587 11.639771 11.776917 11.894473 11.991973 12.069008 12.125278 12.163247 12.190475 12.207018 12.212493 12.206579 12.189041 12.159694 12.118441 12.065294 12.001705 11.939308 11.880559 11.825263 11.773235 11.724265 11.678102 11.63446 11.593029 11.553469 11.515439 11.47858 11.442541 11.406962 11.371496 11.335797 11.299543 11.262431 11.224183 11.184554 11.143333 11.100358 11.055511 11.008728 10.960004 10.909402 10.857039 10.803115 10.747892 10.691719 10.635013 10.578272 10.522069 10.467057 10.413966 10.363591 10.316809 10.274549 10.237811 10.207649 10.185164 10.171501 10.160212 10.141538 10.115865 10.083684 10.047341 10.014894 9.985692 9.961292 9.940175 9.907914 9.86153 9.799835 9.721874 9.626948 9.514612 9.384685 9.237264 9.084134 8.949013 8.830383 8.726091 8.634232 8.553167 8.48154 8.418265 8.362551 8.31389 8.272086 8.237234 8.20973 8.184923 8.156219 8.137565 8.131002 8.134417 8.145845 8.163499 8.185767 8.211241 8.238719 8.266786 8.285182 8.291082 8.306964 8.33781 8.381376 8.43581 8.499637 8.571731 8.65132 8.737934 8.83139 8.931766 9.03937 9.154709 9.295997 9.507476 9.788593 10.136569 10.548756 11.022614 11.555676 12.145538 12.789819 13.48613 14.232035 15.025021 15.862461 16.72699 17.589079 18.44315 19.281834 20.08697 20.8516 21.571096 22.24116 22.857843 23.417513 23.916838 24.352776 24.722569 25.023727 25.254055 25.411646 25.494902 25.50258 25.433802 25.288101 25.06546 24.76636 24.391815 23.943405 23.423317 22.834354 22.179962 21.464228 20.691864 19.868198 18.998875 18.089977 17.148293 16.181019 15.195706 14.200168 13.202429 12.210615 11.232923 10.27748 9.352304 8.465252 7.623904 6.835538 6.10708 5.434944 4.797419
10.575867 10.801378 11.010932 11.203744 11.379092 11.536304 11.674776 11.793964 11.893406 11.9727 12.033515 12.083911 12.124293 12.154173 12.173122 12.18078 12.17683 12.161034 12.133213 12.09365 12.052948 12.015718 11.981668 11.950588 11.922311 11.896666 11.873436 11.852371 11.833179 11.815536 11.799101 11.783524 11.768441 11.753485 11.738294 11.722516 11.705811 11.68786 11.668373 11.647085 11.623775 11.598262 11.57041 11.540145 11.50744 11.472344 11.434963 11.395473 11.354135 11.311275 11.267299 11.222694 11.178021 11.133928 11.09113 11.050416 11.012651 10.978762 10.949744 10.92664 10.910549 10.902354 10.891671 10.872834 10.846289 10.812538 10.772127 10.725657 10.673809 10.624584 10.581001 10.528529 10.463292 10.384166 10.290239 10.180857 10.055614 9.914354 9.760484 9.622563 9.505008 9.405348 9.321356 9.251051 9.192709 9.14488 9.106386 9.076331 9.054108 9.038928 9.024245 9.006402 8.983472 8.953698 8.927109 8.91105 8.903363 8.902051 8.905288 8.911427 8.919038 8.926898 8.934038 8.938235 8.942373 8.961764 8.993925 9.036656 9.088167 9.147057 9.21229 9.283175 9.359342 9.440691 9.527384 9.619804 9.724159 9.889856 10.125833 10.429164 10.797068 11.226893 11.71611 12.262255 12.862941 13.515821 14.218726 14.969808 15.766555 16.606323 17.485575 18.373783 19.252111 20.115362 20.953587 21.749643 22.498343 23.195368 23.836773 24.418901 24.938408 25.392208 25.777494 26.091738 26.332642 26.498228 26.58681 26.597027 26.52788 26.37881 26.149689 25.840908 25.453403 24.988708 24.448982 23.837034 23.156357 22.41109 21.606066 20.746737 19.839172 18.889997 17.906334 16.895752 15.866176 14.825758 13.782132 12.743418 11.718044 10.714353 9.740572 8.804754 7.914669 7.077761 6.301105 5.590818 4.927138
10.45446 10.679807 10.88942 11.082549 11.258485 11.416574 11.556223 11.676902 11.778155 11.860787 11.933108 11.996243 12.049595 12.09265 12.124939 12.146051 12.155622 12.153337 12.138939 12.12015 12.104894 12.092681 12.083187 12.076222 12.071646 12.06932 12.069057 12.070624 12.073756 12.078136 12.083426 12.08927 12.095294 12.10113 12.106396 12.110735 12.113788 12.115223 12.114736 12.112044 12.106914 12.09914 12.088585 12.075146 12.058787 12.039541 12.017492 11.992814 11.965741 11.93659 11.905756 11.873711 11.841014 11.808283 11.776234 11.745647 11.717383 11.692349 11.671539 11.655993 11.646791 11.643362 11.633408 11.614601 11.58739 11.552267 11.509789 11.460554 11.405311 11.348569 11.291965 11.223057 11.139173 11.042468 10.932445 10.808483 10.670216 10.51752 10.369897 10.246894 10.145779 10.064016 9.999316 9.949616 9.913118 9.888279 9.872839 9.862297 9.854073 9.845813 9.835273 9.820329 9.798986 9.769394 9.735235 9.709241 9.690057 9.675642 9.664129 9.653843 9.643316 9.631311 9.616838 9.602929 9.610824 9.632567 9.664942 9.705798 9.753421 9.806492 9.86407 9.925562 9.990693 10.059458 10.132099 10.209149 10.328196 10.518513 10.777005 11.10075 11.486959 11.93298 12.436862 12.996634 13.609809 14.273932 14.986568 15.745267 16.547516 17.39072 18.27216 19.181744 20.08328 20.967731 21.83017 22.656754 23.433844 24.157145 24.822691 25.426815 25.966146 26.437567 26.838228 27.165516 27.417082 27.590834 27.684982 27.698044 27.628922 27.47691 27.241789 26.923836 26.523918 26.04351 25.484737 24.850426 24.144096 23.369978 22.532999 21.638756 20.693483 19.703985 18.677612 17.622156 16.545782 15.456956 14.364347 13.276729 12.202942 11.151723 10.130889 9.147939 8.210814 7.32712 6.50408 5.748479 5.057833
10.318012 10.542988 10.752475 10.945736 11.122084 11.280876 11.42154 11.54355 11.646955 11.739758 11.824313 11.899941 11.966034 12.022049 12.06748 12.101882 12.124838 12.135972 12.139435 12.146257 12.15626 12.168879 12.183788 12.200828 12.219903 12.240898 12.263643 12.287935 12.313491 12.340014 12.367159 12.394567 12.421858 12.448653 12.474562 12.499209 12.522223 12.543266 12.562008 12.57816 12.591463 12.601711 12.608737 12.612427 12.612731 12.60966 12.603295 12.593782 12.581353 12.566302 12.549012 12.529944 12.509637 12.488715 12.467869 12.44787 12.42957 12.413874 12.401754 12.394249 12.392435 12.392733 12.383704 12.365129 12.337443 12.301155 12.256814 12.205028 12.146705 12.08672 12.026614 11.954363 11.865974 11.761786 11.642196 11.507632 11.358581 11.200685 11.065523 10.95609 10.869576 10.803158 10.754033 10.719408 10.696527 10.682685 10.675232 10.67159 10.669254 10.665829 10.659009 10.646612 10.626578 10.596991 10.557409 10.521055 10.489992 10.462134 10.43557 10.408587 10.379685 10.347595 10.311316 10.28698 10.291054 10.313976 10.345451 10.383394 10.426167 10.472543 10.521688 10.573118 10.626653 10.682384 10.74065 10.816236 10.959648 11.172415 11.451749 11.795769 12.201656 12.666633 13.188028 13.763259 14.389826 15.065278 15.787189 16.553123 17.360603 18.207083 19.089893 20.006203 20.929838 21.834505 22.715252 23.56666 24.371284 25.120113 25.809166 26.434782 26.993542 27.482315 27.898188 28.238485 28.500774 28.682856 28.782825 28.799084 28.730385 28.575909 28.3353 28.008732 27.596989 27.101482 26.524319 25.86832 25.13706 24.334843 23.466702 22.53839 21.556295 20.527435 19.459362 18.3601 17.238056 16.101946 14.960696 13.823331 12.698947 11.596527 10.524913 9.492735 8.508286 7.579346 6.711894 5.912446 5.186836
10.166911 10.391307 10.600466 10.793665 10.970232 11.129546 11.271041 11.394251 11.505924 11.610392 11.706892 11.794736 11.873296 11.942 12.000321 12.047779 12.08392 12.110107 12.138521 12.170704 12.20575 12.243 12.282146 12.323099 12.365795 12.41013 12.455956 12.503054 12.551154 12.599947 12.649091 12.698214 12.746934 12.794853 12.841582 12.886728 12.929908 12.970762 13.008963 13.044189 13.07618 13.104707 13.12959 13.1507 13.167971 13.181401 13.191052 13.197058 13.199632 13.199059 13.195704 13.190021 13.182528 13.173839 13.164634 13.155677 13.147802 13.141909 13.138961 13.139978 13.146019 13.148741 13.140831 13.122679 13.094727 13.057476 13.011486 12.957359 12.896347 12.833525 12.770154 12.694625 12.602295 12.493513 12.368671 12.228214 12.072628 11.922375 11.800014 11.702787 11.627849 11.572353 11.533459 11.508337 11.494196 11.488293 11.48793 11.490491 11.493422 11.494278 11.4907 11.480446 11.461399 11.431576 11.389142 11.34201 11.298698 11.257075 11.215187 11.171269 11.12378 11.071426 11.016967 10.986171 10.981752 11.000689 11.030155 11.064141 11.101106 11.139928 11.179886 11.2206 11.262009 11.3043 11.349156 11.444273 11.611987 11.848957 12.15196 12.517935 12.943944 13.427193 13.964998 14.554756 15.193953 15.880133 16.61086 17.383709 18.196222 19.045883 19.930067 20.846012 21.784996 22.70884 23.60698 24.474731 25.304413 26.07795 26.78982 27.436352 28.014114 28.519934 28.950836 29.304089 29.577156 29.767735 29.873793 29.893589 29.825747 29.6693 29.423752 29.089167 28.66624 28.156303 27.561451 26.884512 26.1291 25.299612 24.4012 23.439753 22.421852 21.354698 20.24607 19.104223 17.937788 16.755741 15.567252 14.381599 13.208117 12.056039 10.934434 9.852157 8.817711 7.839207 6.924313 6.080198 5.31345
10.001572 10.225177 10.433798 10.626733 10.803323 10.962955 11.105078 11.233988 11.356713 11.472529 11.580659 11.680401 11.77111 11.852193 11.923101 11.983316 12.032581 12.081415 12.134982 12.192212 12.252056 12.313723 12.376966 12.441774 12.508097 12.575836 12.644825 12.714837 12.785598 12.856794 12.928073 12.999062 13.069364 13.138577 13.206296 13.27212 13.335653 13.396528 13.454391 13.508924 13.559837 13.606895 13.649898 13.688708 13.723242 13.753476 13.77947 13.801333 13.819264 13.833535 13.844499 13.852591 13.858323 13.862283 13.865154 13.867681 13.870685 13.875052 13.881742 13.89176 13.904936 13.909655 13.903061 13.885533 13.857517 13.819517 13.772086 13.715834 13.652608 13.587374 13.52104 13.442291 13.346091 13.232787 13.102773 12.956506 12.79759 12.659395 12.54861 12.462389 12.397876 12.352191 12.322463 12.305837 12.299482 12.30062 12.306521 12.314523 12.322029 12.326546 12.32567 12.317106 12.298675 12.26833 12.224163 12.167674 12.111753 12.056064 11.99859 11.937531 11.871284 11.798517 11.73313 11.694746 11.680758 11.688749 11.713881 11.74288 11.773091 11.803511 11.833538 11.862924 11.892154 11.923038 11.973857 12.095703 12.288548 12.549025 12.87391 13.260145 13.704786 14.205011 14.758121 15.361483 16.012568 16.708893 17.448019 18.227509 19.044914 19.897736 20.78337 21.699102 22.642029 23.583942 24.498522 25.381042 26.227108 27.024427 27.75837 28.425205 29.021482 29.543995 29.989714 30.35583 30.63971 30.838945 30.951353 30.975067 30.908531 30.75063 30.500723 30.15876 29.725311 29.201666 28.589878 27.892797 27.114084 26.258228 25.33051 24.336977 23.284384 22.180153 21.032253 19.84917 18.6398 17.413336 16.179192 14.946888 13.726001 12.525992 11.356155 10.225558 9.1429 8.116488 7.154153 6.263218 5.450454
9.822449 10.045044 10.252915 10.445374 10.621776 10.781518 10.926563 11.065786 11.199234 11.326059 11.445476 11.556772 11.659284 11.752397 11.835535 11.908156 11.976007 12.049476 12.127688 12.209527 12.293863 12.379752 12.467035 12.555714 12.645723 12.736941 12.829189 12.922223 13.015765 13.10949 13.203041 13.296035 13.388065 13.478722 13.567596 13.654267 13.738336 13.819418 13.897146 13.971195 14.041256 14.107082 14.168459 14.225234 14.277312 14.324654 14.36729 14.405334 14.438963 14.468435 14.494088 14.516338 14.535689 14.552715 14.568082 14.582523 14.596843 14.611925 14.628705 14.648186 14.666848 14.673759 14.668673 14.651972 14.624098 14.585555 14.536901 14.478748 14.413907 14.346681 14.277718 14.195819 14.09582 13.978073 13.842979 13.690988 13.535507 13.408097 13.307588 13.231117 13.175807 13.138752 13.11706 13.107843 13.108253 13.115466 13.126725 13.139332 13.150651 13.158152 13.159379 13.151986 13.13374 13.102532 13.056394 12.993693 12.924809 12.854754 12.781467 12.703074 12.617924 12.526474 12.454167 12.407094 12.382475 12.377955 12.39162 12.414604 12.43713 12.458387 12.479634 12.501304 12.523313 12.546841 12.619861 12.765945 12.981587 13.263434 13.608288 14.013079 14.474839 14.990734 15.558043 16.174095 16.836329 17.542246 18.289371 19.07526 19.897455 20.753452 21.64068 22.556446 23.4979 24.453152 25.383152 26.279573 27.137981 27.953436 28.708637 29.3951 30.009352 30.548159 31.008442 31.387306 31.682026 31.890053 32.009087 32.037067 31.972296 31.813486 31.559834 31.211143 30.76789 30.231285 29.603369 28.886993 28.08589 27.20465 26.248688 25.224215 24.138172 22.998178 21.812443 20.589663 19.33896 18.069769 16.791737 15.514611 14.2482 13.002181 11.786062 10.609112 9.480224 8.407875 7.400064 6.464258 5.607351
9.630024 9.85139 10.058293 10.250062 10.426056 10.586466 10.740334 10.889633 11.033443 11.170921 11.301267 11.423751 11.5377 11.642467 11.737459 11.824348 11.915967 12.01349 12.115762 12.221651 12.330031 12.440048 12.551399 12.664001 12.777758 12.892529 13.008118 13.124269 13.240697 13.35706 13.472998 13.58812 13.702007 13.814251 13.924423 14.032098 14.136862 14.238322 14.336105 14.429866 14.519286 14.604103 14.684095 14.759087 14.82897 14.893696 14.953282 15.007819 15.057474 15.102489 15.143184 15.179966 15.213319 15.243809 15.272082 15.298854 15.324923 15.351158 15.378476 15.407758 15.430039 15.439329 15.435947 15.420273 15.392748 15.353881 15.304221 15.244444 15.178666 15.109873 15.038625 14.953653 14.849935 14.72783 14.587741 14.430246 14.282986 14.16497 14.073375 14.005331 13.957933 13.928267 13.913408 13.910454 13.916522 13.928778 13.944422 13.960724 13.975027 13.984749 13.987402 13.980593 13.962039 13.929572 13.881154 13.814882 13.73358 13.648872 13.559543 13.463651 13.359484 13.254726 13.174562 13.117722 13.081446 13.063445 13.061894 13.075041 13.092237 13.109282 13.125576 13.140878 13.155238 13.182403 13.278369 13.446124 13.682208 13.983294 14.346184 14.767802 15.245175 15.775436 16.355831 16.983652 17.65631 18.371258 19.126001 19.91806 20.74496 21.604195 22.49319 23.409264 24.34959 25.309942 26.254282 27.163685 28.033663 28.860027 29.634584 30.33993 30.971571 31.526217 32.000755 32.392204 32.69775 32.914707 33.040607 33.07324 33.01071 32.85154 32.594765 32.240036 31.787716 31.238947 30.595734 29.860968 29.038454 28.132881 27.149818 26.095654 24.977528 23.803247 22.581247 21.320452 20.030205 18.720158 17.400188 16.08027 14.770409 13.480497 12.22024 10.999098 9.826143 8.710015 7.658868 6.680303 5.78134
9.424819 9.644731 9.850447 10.041302 10.21668 10.383242 10.546526 10.705534 10.85935 11.007113 11.148023 11.281325 11.40633 11.522374 11.629 11.736883 11.851916 11.972906 12.098698 12.228161 12.360247 12.494164 12.629473 12.765966 12.903483 13.04184 13.18082 13.320154 13.459534 13.598619 13.737035 13.874382 14.01024 14.144182 14.275776 14.404588 14.530196 14.652191 14.770196 14.883846 14.99282 15.096836 15.195661 15.289105 15.377049 15.459429 15.536242 15.607574 15.673566 15.73445 15.790537 15.842209 15.889936 15.934272 15.975843 16.015358 16.053593 16.091404 16.129696 16.16728 16.192797 16.204655 16.203173 16.188726 16.161762 16.12278 16.072338 16.01159 15.945343 15.875403 15.802214 15.714244 15.606892 15.480519 15.335533 15.17561 15.036744 14.926676 14.84258 14.78157 14.740732 14.717138 14.707849 14.709942 14.720508 14.736691 14.755672 14.774693 14.791061 14.802169 14.805498 14.798611 14.779176 14.74498 14.693914 14.624012 14.533887 14.434227 14.328633 14.215093 14.091835 13.978075 13.888962 13.821317 13.772398 13.741201 13.728006 13.731326 13.745321 13.758024 13.768544 13.776786 13.782955 13.824823 13.94096 14.127824 14.382005 14.700188 15.079191 15.51593 16.007402 16.550714 17.143082 17.781748 18.464083 19.1875 19.949461 20.747458 21.578985 22.44152 23.33247 24.249151 25.188751 26.148296 27.10552 28.026918 28.907644 29.743452 30.530357 31.253778 31.90213 32.47211 32.96054 33.36438 33.680687 33.906662 34.039673 34.077312 34.01749 33.858536 33.59928 33.239227 32.7786 32.218483 31.56086 30.808651 29.965752 29.03698 28.02806 26.945566 25.796824 24.589874 23.333345 22.036386 20.708557 19.359724 17.999968 16.639462 15.288423 13.956931 12.654878 11.391894 10.177225 9.01966 7.927493 6.908457 5.969678
9.207382 9.42562 9.629926 9.819654 9.997565 10.172877 10.345205 10.513562 10.677014 10.834693 10.985788 11.129539 11.265228 11.392184 11.514947 11.645574 11.783452 11.927399 12.076242 12.228889 12.38436 12.541883 12.700932 12.861177 13.022367 13.18427 13.346628 13.509154 13.671518 13.833368 13.994322 14.153962 14.311867 14.467597 14.620715 14.770778 14.91735 15.060019 15.198392 15.332094 15.460793 15.584198 15.70206 15.814178 15.920419 16.020702 16.115015 16.203417 16.286053 16.363121 16.434921 16.501827 16.564287 16.622839 16.678095 16.730745 16.781555 16.831352 16.881031 16.924498 16.95343 16.968046 16.968658 16.955643 16.929443 16.890562 16.83956 16.77872 16.712416 16.641758 16.566938 16.476051 16.365154 16.234608 16.084831 15.925668 15.793673 15.690056 15.611983 15.556566 15.520885 15.501991 15.496943 15.502791 15.516623 15.535556 15.55675 15.57743 15.594877 15.606462 15.60963 15.601912 15.580942 15.544456 15.490296 15.416428 15.320946 15.206738 15.084642 14.953296 14.813295 14.691305 14.592192 14.514416 14.457212 14.418096 14.395132 14.386933 14.392297 14.399729 14.403673 14.404222 14.405996 14.466178 14.599738 14.803186 15.073143 15.406322 15.799533 16.249714 16.753933 17.309078 17.912235 18.56066 19.251831 19.983128 20.751892 21.555569 22.391615 23.257484 24.150562 25.068146 26.00743 26.965424 27.93071 28.863054 29.75363 30.598148 31.39261 32.13089 32.795216 33.379936 33.881836 34.297794 34.62477 34.85982 35.000145 35.043144 34.986507 34.82833 34.567257 34.2026 33.73445 33.163834 32.492706 31.724056 30.861858 29.911097 28.877655 27.768297 26.590565 25.352694 24.063534 22.73244 21.369171 19.983793 18.586592 17.187914 15.79817 14.427615 13.086298 11.784022 10.530173 9.333692 8.202991 7.145931 6.169743
8.978298 9.194642 9.397326 9.586482 9.771794 9.955484 10.136493 10.313824 10.486543 10.653774 10.814688 10.968519 11.114528 11.253107 11.397284 11.550102 11.710314 11.87673 12.04821 12.223686 12.402209 12.583014 12.765513 12.949282 13.133986 13.319321 13.504983 13.690652 13.875979 14.060596 14.2441 14.426066 14.606063 14.783643 14.958356 15.129752 15.297389 15.460843 15.619708 15.773605 15.922189 16.065153 16.202238 16.333233 16.457985 16.576405 16.688467 16.794216 16.893768 16.987322 17.075157 17.157621 17.235157 17.30828 17.37759 17.443752 17.507519 17.569702 17.630005 17.677732 17.710257 17.72781 17.730713 17.719328 17.694105 17.655542 17.604284 17.544344 17.478405 17.407452 17.331257 17.237534 17.123188 16.988575 16.834106 16.677538 16.550852 16.452143 16.378574 16.32726 16.295267 16.279654 16.277454 16.28572 16.301516 16.32195 16.34417 16.365374 16.382835 16.393898 16.39598 16.386597 16.363342 16.323915 16.266111 16.187841 16.08713 15.962449 15.823575 15.674258 15.520685 15.391086 15.286707 15.203982 15.139852 15.091853 15.058161 15.037553 15.029381 15.029695 15.026337 15.018614 15.025703 15.107187 15.263678 15.490588 15.783575 16.138546 16.551643 17.019264 17.538006 18.104717 18.71647 19.370535 20.064411 20.795778 21.562496 22.36256 23.194077 24.055246 24.944271 25.85936 26.798138 27.755054 28.72395 29.666115 30.565586 31.418005 32.21932 32.965763 33.645226 34.24402 34.758877 35.186615 35.524082 35.768227 35.91604 35.96472 35.911724 35.754906 35.492676 35.124146 34.64929 34.069027 33.38534 32.601284 31.720951 30.74947 29.692938 28.55831 27.353338 26.086464 24.766737 23.403713 22.007338 20.587866 19.15575 17.721521 16.295742 14.888826 13.510975 12.172139 10.881833 9.649129 8.48256 7.390085 6.379039
8.738189 8.952423 9.15327 9.346517 9.539531 9.731223 9.920537 10.106474 10.288092 10.464505 10.634881 10.798437 10.954426 11.110073 11.275733 11.450216 11.632275 11.820727 12.014437 12.212371 12.413604 12.617352 12.822984 13.029998 13.237977 13.446562 13.655391 13.8641 14.072322 14.279651 14.485679 14.689965 14.892065 15.09152 15.287871 15.480659 15.669435 15.853758 16.03322 16.20743 16.376026 16.538704 16.695177 16.84523 16.988699 17.125471 17.255516 17.378855 17.495598 17.60592 17.710083 17.808426 17.901361 17.989399 18.073109 18.153149 18.230242 18.305193 18.373198 18.42533 18.461613 18.482292 18.48767 18.47812 18.454084 18.41606 18.365526 18.307014 18.241848 18.17102 18.093634 17.997177 17.879473 17.740894 17.581858 17.428543 17.305573 17.210182 17.139559 17.090805 17.061 17.047188 17.046402 17.055681 17.072086 17.09271 17.114695 17.135221 17.151548 17.161003 17.160995 17.149008 17.122618 17.079496 17.0174 16.93419 16.827827 16.6964 16.541582 16.375427 16.216148 16.084244 15.975801 15.887123 15.815078 15.757239 15.711898 15.678058 15.658138 15.65708 15.662844 15.667833 15.704967 15.818619 16.004326 16.25756 16.574015 16.949629 17.380571 17.863249 18.394272 18.970491 19.58899 20.247032 20.942127 21.671967 22.434416 23.227491 24.04936 24.898252 25.772465 26.670277 27.58993 28.529541 29.486858 30.43112 31.337772 32.197212 33.00464 33.75622 34.44676 35.05887 35.586075 36.02517 36.372902 36.62607 36.781506 36.836166 36.787254 36.63237 36.369648 35.997993 35.517235 34.92822 34.232952 33.43455 32.537292 31.546469 30.468384 29.310211 28.079899 26.7861 25.438057 24.045494 22.618542 21.167612 19.70332 18.236345 16.777391 15.337014 13.925552 12.553065 11.229205 9.963144 8.763531 7.638414 6.595208
8.487703 8.699622 8.900407 9.100629 9.300961 9.50028 9.697528 9.891701 10.081855 10.267095 10.446581 10.619517 10.787171 10.963458 11.150072 11.345715 11.549152 11.759202 11.97475 12.194765 12.418341 12.644674 12.873096 13.103038 13.334023 13.565619 13.797417 14.029011 14.259996 14.489948 14.71843 14.944987 15.169166 15.390488 15.608485 15.822691 16.032646 16.237906 16.438042 16.632656 16.821384 17.003897 17.179907 17.349186 17.511547 17.666876 17.815119 17.956284 18.090462 18.217815 18.338593 18.453102 18.561752 18.66502 18.763468 18.857729 18.948507 19.035627 19.108953 19.165646 19.205862 19.229847 19.237892 19.230373 19.207727 19.170464 19.12199 19.065306 19.001328 18.93105 18.852554 18.753448 18.632494 18.49006 18.327051 18.1762 18.055304 17.96163 17.89235 17.844593 17.815426 17.801897 17.801035 17.809887 17.825487 17.84494 17.86536 17.883936 17.897913 17.904606 17.901405 17.885788 17.855314 17.807629 17.74046 17.651642 17.539085 17.401527 17.240671 17.064592 16.903133 16.76778 16.65423 16.558634 16.477749 16.412846 16.37011 16.347193 16.34205 16.353186 16.375565 16.39606 16.46427 16.60645 16.817871 17.09407 17.430805 17.824043 18.270004 18.765114 19.306 19.889534 20.51281 21.173096 21.867897 22.594906 23.351997 24.137192 24.948673 25.784704 26.643604 27.523735 28.423393 29.340803 30.274029 31.201033 32.089725 32.937653 33.743046 34.499023 35.194794 35.81925 36.35812 36.808033 37.165688 37.427742 37.590862 37.65176 37.60737 37.454964 37.19242 36.818405 36.332558 35.735695 35.029827 34.218224 33.30531 32.296616 31.198643 30.01878 28.765198 27.44673 26.072788 24.653276 23.198465 21.71892 20.225386 18.728662 17.239595 15.768845 14.326859 12.923824 11.569473 10.273094 9.04341 7.888563 6.816047
8.22753 8.436954 8.642196 8.849041 9.056309 9.262878 9.46769 9.669736 9.868067 10.061784 10.250036 10.432025 10.616583 10.813052 11.020093 11.236409 11.460763 11.691976 11.928954 12.170669 12.416203 12.664752 12.915596 13.168127 13.421803 13.676136 13.930659 14.184937 14.438518 14.690949 14.941774 15.190516 15.436701 15.679849 15.919474 16.155098 16.386248 16.612473 16.833336 17.048428 17.257372 17.459831 17.655508 17.844147 18.025568 18.19963 18.366268 18.525475 18.677326 18.821959 18.959606 19.090565 19.215216 19.334024 19.447525 19.55633 19.661127 19.75702 19.835678 19.897085 19.9414 19.968859 19.979753 19.974455 19.95341 19.917921 19.872293 19.81783 19.755447 19.686134 19.6065 19.504847 19.380745 19.234573 19.068277 18.918236 18.797771 18.704168 18.634617 18.58625 18.556143 18.541346 18.53889 18.545815 18.559162 18.576017 18.593504 18.608797 18.619131 18.62182 18.614254 18.593885 18.558268 18.50504 18.431904 18.336815 18.221106 18.084082 17.923578 17.741365 17.576567 17.43657 17.317362 17.225864 17.161583 17.119835 17.097073 17.090769 17.099173 17.121035 17.155107 17.193401 17.289053 17.455906 17.689337 17.984938 18.338537 18.746181 19.204115 19.708818 20.256966 20.845448 21.47138 22.132038 22.82494 23.547771 24.298407 25.074856 25.875301 26.698008 27.541302 28.403576 29.283167 30.17835 31.087255 31.99426 32.86223 33.68719 34.467316 35.201225 35.887966 36.52021 37.069893 37.529987 37.897118 38.16783 38.33862 38.405956 38.366467 38.217106 37.955414 37.579777 37.089684 36.485878 35.77044 34.946796 34.019592 32.994587 31.878527 30.679008 29.404387 28.063684 26.666475 25.222794 23.743048 22.23792 20.718266 19.194996 17.679049 16.18119 14.711965 13.281631 11.90003 10.576509 9.319882 8.138364 7.039514
7.958379 8.167776 8.378931 8.59201 8.805832 9.019278 9.231281 9.440839 9.646993 9.848841 10.045527 10.238632 10.442554 10.658671 10.885624 11.122127 11.366931 11.618875 11.876862 12.139868 12.406972 12.677337 12.950231 13.224983 13.501007 13.777769 14.054749 14.331463 14.607427 14.882157 15.15517 15.425973 15.69407 15.958963 16.22016 16.477167 16.7295 16.976698 17.218315 17.453934 17.683163 17.90565 18.12109 18.329226 18.529842 18.722801 18.90801 19.085457 19.255186 19.417332 19.572096 19.719763 19.86069 19.99532 20.124168 20.247826 20.365637 20.46768 20.551796 20.618065 20.666634 20.697731 20.711662 20.708782 20.689579 20.65749 20.615086 20.563234 20.502848 20.434914 20.353985 20.249876 20.122742 19.972956 19.80349 19.652588 19.530893 19.43571 19.364246 19.313648 19.281 19.263355 19.257753 19.261227 19.270826 19.283625 19.296755 19.307377 19.31273 19.310116 19.296919 19.270592 19.228685 19.16882 19.090645 18.995214 18.880241 18.743446 18.58264 18.400919 18.233017 18.104256 18.012066 17.949732 17.91115 17.891403 17.887074 17.896 17.916782 17.948421 17.990206 18.046457 18.165464 18.353018 18.604586 18.915857 19.282742 19.701351 20.168018 20.67929 21.231892 21.82276 22.449047 23.108051 23.797308 24.514492 25.257479 26.024271 26.813017 27.621977 28.449469 29.293861 30.1535 31.026674 31.91155 32.796684 33.64292 34.444233 35.19867 35.904713 36.561317 37.167965 37.716633 38.186096 38.562115 38.84115 39.019497 39.09339 39.059155 38.913364 38.65319 38.2767 37.78318 37.173344 36.4494 35.614956 34.67492 33.635303 32.503113 31.286129 29.992907 28.63261 27.214954 25.750093 24.24853 22.721043 21.178581 19.63214 18.092733 16.571198 15.078159 13.623947 12.218466 10.871135 9.590836 8.385829 7.263739
7.681046 7.894229 8.110902 8.329823 8.549815 8.769761 8.988592 9.205299 9.418927 9.628566 9.833357 10.042193 10.264925 10.500149 10.746509 11.002701 11.267494 11.539721 11.818284 12.102162 12.39042 12.682204 12.976741 13.273336 13.571347 13.870196 14.169324 14.468196 14.766294 15.063109 15.358126 15.650826 15.940697 16.227228 16.509914 16.788237 17.061712 17.329866 17.59224 17.848402 18.097956 18.34054 18.575832 18.803555 19.023499 19.235489 19.43943 19.635288 19.823092 20.002958 20.175066 20.33968 20.497133 20.64785 20.79232 20.931112 21.057846 21.16606 21.255766 21.327028 21.380005 21.414913 21.432047 21.431778 21.415754 21.387857 21.34905 21.300196 21.2422 21.176039 21.093504 20.987053 20.857004 20.703722 20.530838 20.377401 20.252813 20.15439 20.079367 20.0249 19.988096 19.966007 19.955685 19.954159 19.958487 19.965742 19.973053 19.977577 19.976555 19.96728 19.947136 19.91358 19.864595 19.801949 19.724144 19.628748 19.513395 19.375822 19.21454 19.052216 18.920502 18.824453 18.762661 18.727942 18.713604 18.714388 18.727142 18.750216 18.78258 18.823452 18.872227 18.942469 19.080717 19.284924 19.550674 19.873756 20.250183 20.676178 21.148163 21.662777 22.216822 22.807316 23.431458 24.086586 24.770256 25.480167 26.21417 26.970263 27.746569 28.541302 29.352764 30.179281 31.019173 31.870707 32.73203 33.59424 34.41793 35.195152 35.92376 36.602043 37.22879 37.80333 38.32354 38.775852 39.155907 39.442745 39.628414 39.708904 39.68021 39.538483 39.280483 38.903893 38.40779 37.79287 37.0615 36.217564 35.26627 34.213913 33.067722 31.835674 30.526487 29.149452 27.714384 26.23152 24.711452 23.165024 21.603249 20.037178 18.477888 16.936274 15.423002 13.948468 12.522625 11.154941 9.854344 8.629148 7.487031
7.39867 7.616638 7.838424 8.062795 8.288575 8.514646 8.739938 8.963438 9.184193 9.401286 9.61582 9.842572 10.083556 10.337353 10.602592 10.877986 11.162291 11.45434 11.753033 12.057344 12.366327 12.679103 12.994876 13.312912 13.632532 13.953109 14.274044 14.594769 14.914727 15.233374 15.55017 15.864577 16.176062 16.48409 16.788141 17.087696 17.38224 17.671303 17.95441 18.231117 18.501015 18.763733 19.018936 19.266333 19.505693 19.736843 19.959656 20.17408 20.380138 20.577913 20.76757 20.949348 21.123562 21.290607 21.45095 21.6026 21.736176 21.85067 21.94608 22.02247 22.079998 22.118872 22.139381 22.142195 22.13111 22.107756 22.072908 22.027416 21.972206 21.907799 21.823593 21.714912 21.58206 21.42542 21.248674 21.091042 20.961891 20.85857 20.778334 20.718367 20.67578 20.647648 20.631016 20.622932 20.62045 20.62065 20.620653 20.617622 20.608797 20.591465 20.563015 20.523209 20.473007 20.409819 20.331114 20.23445 20.117483 19.988565 19.861067 19.741877 19.65302 19.589811 19.556295 19.54746 19.555948 19.575909 19.604721 19.64134 19.684994 19.734995 19.790783 19.870054 20.02339 20.2402 20.516127 20.847078 21.229212 21.658863 22.132597 22.647156 23.199463 23.786623 24.405909 25.054737 25.730684 26.43148 27.154978 27.899155 28.662107 29.442013 30.237106 31.045677 31.86598 32.696243 33.534554 34.373352 35.173824 35.926662 36.629513 37.280388 37.877834 38.420994 38.909626 39.33435 39.686783 39.96799 40.16059 40.24759 40.22461 40.087406 39.832214 39.45629 38.958435 38.339375 37.601723 36.749733 35.788925 34.72588 33.568035 32.323563 31.00127 29.610558 28.16131 26.663828 25.128752 23.566973 21.989538 20.407541 18.832098 17.274128 15.744341 14.253165 12.810586 11.426114 10.108716 8.86674 7.707893
7.113008 7.335346 7.561846 7.791276 8.022458 8.254277 8.485662 8.715602 8.943135 9.167348 9.395561 9.63966 9.898333 10.170151 10.453753 10.747839 11.051169 11.362566 11.680933 12.005226 12.334483 12.66782 13.004398 13.343457 13.684282 14.026206 14.368595 14.710838 15.052351 15.392553 15.730885 16.066772 16.399675 16.72903 17.054304 17.37497 17.6905 18.000395 18.304186 18.601408 18.891647 19.174517 19.449667 19.7168 19.975666 20.226065 20.467867 20.701 20.925465 21.141315 21.348705 21.547844 21.739029 21.922619 22.098644 22.258686 22.399181 22.520052 22.621277 22.702915 22.765127 22.808111 22.83217 22.84007 22.834427 22.815939 22.785404 22.743656 22.691612 22.62858 22.5428 22.431995 22.296473 22.136606 21.955547 21.79207 21.656706 21.54684 21.459757 21.392653 21.342669 21.306877 21.282356 21.266144 21.25531 21.24693 21.23813 21.226074 21.207996 21.1815 21.148357 21.107235 21.0554 20.990236 20.909224 20.811323 20.717009 20.628925 20.540752 20.462702 20.41416 20.388182 20.381016 20.395775 20.425508 20.463634 20.508198 20.55842 20.613579 20.673014 20.736172 20.821213 20.9837 21.209076 21.491154 21.82601 22.209929 22.639431 23.111214 23.622183 24.169397 24.750078 25.361618 26.001493 26.66737 27.356995 28.068233 28.79907 29.54754 30.311802 31.090023 31.88041 32.681164 33.490417 34.306187 35.12138 35.898 36.626263 37.303528 37.92748 38.496365 39.00908 39.465214 39.861755 40.18528 40.434933 40.61202 40.704796 40.68759 40.55527 40.303516 39.929005 39.430233 38.808014 38.06533 37.206863 36.238487 35.16705 34.000168 32.74612 31.413822 30.012712 28.55272 27.044191 25.497776 23.92439 22.3351 20.741018 19.15327 17.582798 16.040321 14.536295 13.080714 11.683123 10.352497 9.097226 7.925039
6.824442 7.050739 7.281548 7.515639 7.751836 7.989027 8.226138 8.462157 8.696123 8.928081 9.17251 9.433367 9.709157 9.998451 10.299887 10.612148 10.933998 11.264257 11.601815 11.94562 12.294699 12.648138 13.005076 13.36473 13.72634 14.089217 14.452681 14.816089 15.178823 15.540283 15.899868 16.256994 16.611086 16.961576 17.307905 17.649534 17.985918 18.316557 18.640953 18.958649 19.2692 19.572216 19.867334 20.154234 20.432667 20.702402 20.963297 21.21525 21.458248 21.692331 21.917614 22.13429 22.342628 22.542963 22.7304 22.897972 23.045462 23.172787 23.279926 23.366932 23.433949 23.48119 23.510212 23.524395 23.524496 23.51122 23.485332 23.44769 23.39919 23.336939 23.249697 23.136879 22.998814 22.835855 22.650208 22.47926 22.33605 22.218014 22.122452 22.046593 21.987595 21.94256 21.908566 21.882668 21.861937 21.843456 21.824354 21.8018 21.774576 21.744474 21.708876 21.664967 21.610023 21.541443 21.462793 21.398024 21.344282 21.295141 21.244228 21.204842 21.193695 21.203457 21.226812 21.262392 21.311153 21.367195 21.427885 21.492199 21.559387 21.628798 21.699873 21.788494 21.953571 22.18354 22.467781 22.802546 23.18431 23.609777 24.075836 24.579578 25.118208 25.689123 26.289833 26.917936 27.571175 28.247349 28.94436 29.660172 30.39281 31.14037 31.900963 32.672707 33.45372 34.24204 35.03559 35.82696 36.579067 37.282562 37.934452 38.53202 39.073124 39.556427 39.98132 40.34756 40.64357 40.86326 41.007465 41.07772 41.06472 40.937492 40.689716 40.317352 39.818497 39.194153 38.44783 37.584713 36.611015 35.533768 34.360718 33.10023 31.761234 30.35321 28.8861 27.370253 25.816317 24.235209 22.637997 21.035786 19.439693 17.86066 16.309418 14.796406 13.331645 11.92467 10.584476 9.319469 8.137392
6.533392 6.76323 6.997939 7.236292 7.477118 7.719297 7.961767 8.203509 8.443557 8.686416 8.946623 9.223641 9.515973 9.822186 10.140901 10.470812 10.810668 11.159286 11.51554 11.878376 12.246797 12.619868 12.996715 13.37651 13.758477 14.141886 14.526026 14.91023 15.293839 15.676227 16.056768 16.434855 16.809889 17.181292 17.548481 17.9109 18.268002 18.61926 18.964172 19.302263 19.633081 19.956217 20.271296 20.577993 20.876019 21.16515 21.445204 21.716082 21.977724 22.230165 22.47348 22.70785 22.933502 23.148409 23.343964 23.519104 23.673655 23.80751 23.92064 24.013117 24.085062 24.13729 24.173277 24.194029 24.200174 24.19242 24.171524 24.138336 24.09375 24.031454 23.942846 23.82815 23.68767 23.521776 23.331596 23.15158 22.998934 22.871113 22.76547 22.67926 22.609669 22.553804 22.508774 22.471643 22.439487 22.409399 22.378515 22.347511 22.316635 22.282875 22.243307 22.195122 22.135612 22.073278 22.03213 22.007078 21.991606 21.97924 21.963509 21.960073 21.983456 22.026197 22.08097 22.140753 22.20704 22.280151 22.356857 22.435535 22.51519 22.595087 22.674639 22.765211 22.926977 23.157387 23.439829 23.770542 24.146214 24.563751 25.020267 25.51306 26.039536 26.597271 27.183945 27.797283 28.435127 29.095371 29.775946 30.474829 31.190025 31.919582 32.66153 33.41391 34.17473 34.941917 35.713306 36.4804 37.207233 37.885647 38.51231 39.084 39.59809 40.053 40.447983 40.782776 41.052147 41.243526 41.356724 41.392788 41.35368 41.229755 40.986366 40.61688 40.11876 39.493446 38.74518 37.879585 36.903145 35.823 34.646946 33.383366 32.041206 30.629936 29.159489 27.64018 26.082672 24.497833 22.896723 21.290422 19.690023 18.10646 16.550432 15.032379 13.562303 12.149739 10.803692 9.532552 8.344088
6.240301 6.47326 6.711458 6.953673 7.198734 7.445527 7.692978 7.940076 8.185934 8.442526 8.717891 9.010467 9.31875 9.641303 9.976746 10.323761 10.681093 11.047546 11.421993 11.803352 12.190624 12.582848 12.979126 13.378605 13.780482 14.183991 14.588398 14.993 15.397115 15.800083 16.20126 16.600014 16.995726 17.387793 17.775627 18.158646 18.536291 18.908026 19.273333 19.631721 19.982737 20.325947 20.660963 20.987442 21.305086 21.613644 21.912924 22.20279 22.483177 22.754072 23.015541 23.267725 23.51008 23.734375 23.938034 24.120785 24.282436 24.422886 24.542095 24.640125 24.717342 24.77694 24.820255 24.847843 24.860329 24.8584 24.842825 24.81444 24.773743 24.71073 24.620869 24.504412 24.36166 24.19298 23.998817 23.808184 23.644526 23.50536 23.388065 23.289938 23.208181 23.139946 23.082344 23.032455 22.987377 22.944523 22.906017 22.870438 22.834686 22.795746 22.750729 22.696827 22.645664 22.621717 22.619217 22.631535 22.652115 22.67441 22.691936 22.721704 22.77697 22.85029 22.93443 23.022585 23.109104 23.198202 23.290257 23.383083 23.475307 23.565979 23.654428 23.746431 23.900932 24.126133 24.402874 24.725628 25.091297 25.497038 25.9402 26.418312 26.929014 27.470093 28.039402 28.634855 29.254412 29.896065 30.557802 31.237625 31.933533 32.64352 33.365555 34.097572 34.837673 35.58359 36.33251 37.074055 37.77459 38.427402 39.02878 39.57495 40.062695 40.490253 40.85668 41.16138 41.40287 41.56746 41.651382 41.655136 41.580227 41.429317 41.189274 40.823296 40.32682 39.70202 38.95395 38.088535 37.11233 36.032497 34.856846 33.593742 32.252117 30.841402 29.371504 27.852722 26.295658 24.71117 23.110245 21.503948 19.903341 18.31931 16.762526 15.243405 13.771931 12.357611 11.009439 9.735811 8.544493
5.94565 6.181304 6.422577 6.668252 6.917153 7.168167 7.420229 7.672318 7.925752 8.196449 8.486341 8.793858 9.117495 9.455805 9.8074 10.17096 10.545219 10.928975 11.321085 11.720461 12.126073 12.536954 12.952175 13.370859 13.792182 14.215348 14.63959 15.064182 15.488415 15.911599 16.33307 16.752172 17.168268 17.580738 17.98897 18.392374 18.79037 19.182417 19.56798 19.946554 20.31767 20.68088 21.035786 21.382027 21.719282 22.047285 22.36582 22.67473 22.973923 23.26336 23.543077 23.81308 24.066715 24.299595 24.511362 24.701744 24.870537 25.017626 25.142979 25.246714 25.331575 25.399208 25.450096 25.48477 25.503868 25.508066 25.498129 25.47489 25.437033 25.373371 25.28238 25.164295 25.019415 24.8481 24.650774 24.44841 24.272223 24.120176 23.989702 23.87812 23.782684 23.700552 23.628874 23.564735 23.506348 23.456211 23.41189 23.370205 23.328081 23.282516 23.230625 23.184357 23.170757 23.1842 23.217972 23.265419 23.319944 23.374956 23.423958 23.484346 23.569143 23.670961 23.782757 23.897991 24.010958 24.117819 24.224325 24.33073 24.435274 24.536737 24.63427 24.728867 24.87252 25.086912 25.354141 25.6651 26.016949 26.40709 26.833126 27.292849 27.784159 28.305069 28.85366 29.42802 30.02628 30.646536 31.286875 31.945707 32.62577 33.323906 34.035175 34.755154 35.479897 36.206043 36.93073 37.640835 38.306553 38.924145 39.491062 40.004448 40.46157 40.861473 41.20076 41.476933 41.689327 41.82851 41.884617 41.857666 41.74867 41.559868 41.294945 40.93259 40.43896 39.816925 39.07186 38.209717 37.237034 36.160988 34.989315 33.73039 32.39309 30.986826 29.521446 28.007204 26.454657 24.874605 23.278 21.675835 20.079126 18.498713 16.94522 15.429026 13.960068 12.547836 11.201294 9.928834 8.738202
5.649948 5.887872 6.131804 6.380527 6.632867 6.887715 7.144002 7.400716 7.664114 7.94826 8.252036 8.573869 8.912243 9.265711 9.632877 10.012412 10.403036 10.803543 11.212774 11.629629 12.053063 12.482083 12.915745 13.35315 13.793438 14.235801 14.679434 15.123588 15.567532 16.010553 16.45196 16.891073 17.327244 17.759823 18.188192 18.611744 19.029884 19.442057 19.847704 20.24633 20.637426 21.020546 21.395275 21.761227 22.118065 22.46551 22.803307 23.131294 23.449335 23.75737 24.0554 24.338783 24.601427 24.842875 25.062748 25.26077 25.436722 25.590492 25.722054 25.833649 25.927193 26.00307 26.061745 26.103756 26.129736 26.14035 26.13637 26.118603 26.082235 26.01804 25.92603 25.806446 25.659588 25.4858 25.28551 25.07176 24.881563 24.715157 24.570015 24.4435 24.332888 24.235395 24.14817 24.070461 24.00453 23.94735 23.89571 23.84646 23.796526 23.742935 23.695126 23.684599 23.706944 23.755371 23.823158 23.90362 23.990131 24.07609 24.154963 24.243618 24.355827 24.484322 24.622238 24.763258 24.90188 25.033604 25.155918 25.275143 25.391516 25.503527 25.610117 25.710546 25.83992 26.03831 26.292295 26.587759 26.922077 27.29292 27.698154 28.135864 28.6042 29.101461 29.625961 30.175999 30.749884 31.351706 31.984732 32.643 33.320827 34.01284 34.71411 35.42014 36.127007 36.831272 37.530067 38.20618 38.835506 39.415615 39.944016 40.417946 40.834892 41.193375 41.49245 41.731247 41.90921 42.022007 42.05159 41.99531 41.853683 41.628517 41.323193 40.94238 40.4536 39.837246 39.09833 38.242744 37.277008 36.20826 35.044216 33.7932 32.46406 31.06614 29.609251 28.103577 26.559618 24.988102 23.39992 21.806004 20.217289 18.64457 17.0984 15.589106 14.126575 12.720264 11.379103 10.111451 8.925049
5.353747 5.59351 5.839675 6.091032 6.346408 6.604693 6.864821 7.125943 7.401156 7.698086 8.015092 8.3506 8.703089 9.071099 9.453236 9.848153 10.254572 10.671262 11.097061 11.530847 11.971563 12.418197 12.869783 13.325401 13.784168 14.245243 14.707813 15.171089 15.634324 16.096779 16.557741 17.016516 17.472425 17.924812 18.373035 18.816477 19.254526 19.686611 20.112167 20.53067 20.941614 21.344534 21.738987 22.124578 22.50096 22.867807 23.224861 23.571924 23.908834 24.235497 24.548702 24.841476 25.113083 25.36306 25.59103 25.79668 25.979813 26.14029 26.27995 26.40083 26.503227 26.58753 26.65421 26.703798 26.736904 26.754227 26.756493 26.744205 26.708017 26.643383 26.550486 26.429546 26.28086 26.104769 25.901693 25.677893 25.47228 25.290089 25.128836 24.98595 24.858738 24.744442 24.643528 24.5576 24.483423 24.417732 24.357336 24.29911 24.240017 24.184929 24.169796 24.193596 24.249474 24.330614 24.430283 24.541801 24.658512 24.77382 24.88118 24.995924 25.133608 25.287088 25.44965 25.615177 25.778273 25.934452 26.08015 26.213562 26.341103 26.463219 26.578632 26.686436 26.802574 26.98099 27.217323 27.493721 27.806952 28.154936 28.535835 28.948006 29.389912 29.860115 30.357191 30.889158 31.461153 32.06698 32.70054 33.355915 34.027462 34.7098 35.397995 36.087517 36.774372 37.45508 38.126564 38.766426 39.358437 39.900486 40.390194 40.825 41.20169 41.514984 41.766403 41.95747 42.088783 42.15949 42.155746 42.069324 41.895573 41.633987 41.289433 40.867928 40.373367 39.764847 39.034832 38.188866 37.233345 36.176434 35.028595 33.79555 32.48325 31.098778 29.651003 28.151056 26.612806 25.05213 23.476437 21.894827 20.31817 18.75717 17.222315 15.723859 14.271636 12.875046 11.542974 10.283755 9.105103
5.05763 5.298793 5.546768 5.800337 6.05834 6.319664 6.583245 6.85021 7.137064 7.446095 7.775671 8.124201 8.490165 8.872094 9.268583 9.678284 10.099898 10.532191 10.973983 11.424142 11.88159 12.345295 12.814275 13.287585 13.764323 14.243628 14.724655 15.206602 15.688689 16.170162 16.650288 17.128345 17.60365 18.075514 18.543293 19.00634 19.464043 19.91581 20.361065 20.799265 21.229897 21.652472 22.066536 22.471676 22.867514 23.253712 23.629988 23.996109 24.351881 24.694906 25.018002 25.320076 25.60059 25.85906 26.095093 26.30837 26.498667 26.667543 26.81702 26.947317 27.058725 27.151634 27.226513 27.283895 27.324389 27.348675 27.357496 27.349134 27.313053 27.248098 27.154434 27.03229 26.881931 26.70372 26.498045 26.266623 26.044243 25.844893 25.666162 25.50552 25.360321 25.23226 25.122198 25.026863 24.943003 24.867401 24.796892 24.728374 24.661795 24.63401 24.65144 24.707144 24.794254 24.90597 25.035536 25.176281 25.321547 25.464764 25.599394 25.738289 25.899603 26.076437 26.26222 26.450947 26.637304 26.816782 26.985678 27.141138 27.281612 27.413252 27.5371 27.652082 27.76099 27.916206 28.13027 28.384232 28.672997 28.994753 29.347948 29.731222 30.143356 30.590097 31.084906 31.622517 32.19684 32.80182 33.43149 34.080017 34.741776 35.411423 36.083965 36.754856 37.420002 38.075882 38.717793 39.320515 39.874878 40.37757 40.816235 41.190117 41.503128 41.75798 41.95646 42.09944 42.186947 42.21829 42.18452 42.072853 41.878036 41.5944 41.21637 40.745228 40.207996 39.60372 38.88799 38.065727 37.1414 36.11926 35.003464 33.7984 32.50911 31.141903 29.704918 28.208712 26.666664 25.095205 23.51384 21.943153 20.382524 18.8372 17.31758 15.83384 14.395741 13.012613 11.693297 10.446082 9.278657
4.762216 5.00434 5.253688 5.509052 5.769267 6.033223 6.299856 6.574279 6.872068 7.192517 7.533981 7.894871 8.273659 8.668868 9.079081 9.502945 9.939149 10.386448 10.843646 11.309599 11.783209 12.263432 12.749262 13.239735 13.733926 14.230954 14.729952 15.230096 15.730585 16.230646 16.729515 17.22647 17.720797 18.211798 18.698805 19.181164 19.658243 20.129438 20.594158 21.051853 21.501984 21.944052 22.37759 22.802155 23.217348 23.622826 24.018257 24.403383 24.776197 25.129599 25.462265 25.77356 26.06291 26.32981 26.573858 26.79473 26.993816 27.172993 27.33239 27.472216 27.592775 27.694456 27.777718 27.843105 27.891222 27.922743 27.938402 27.931923 27.896053 27.83089 27.7366 27.613396 27.461544 27.281385 27.073303 26.837788 26.597467 26.379663 26.182133 26.002474 25.84334 25.705091 25.58452 25.478397 25.383501 25.296656 25.21474 25.134773 25.085934 25.088783 25.136322 25.221613 25.337788 25.478046 25.63565 25.803923 25.97624 26.146044 26.306833 26.46822 26.651402 26.849993 27.05754 27.268139 27.476496 27.678078 27.869066 28.046406 28.207747 28.351568 28.483341 28.605171 28.716228 28.845535 29.033165 29.26151 29.522644 29.815004 30.137314 30.489716 30.891205 31.344164 31.842703 32.38091 32.9529 33.552784 34.174732 34.812992 35.46199 36.116386 36.77118 37.42173 38.063904 38.694057 39.30387 39.864555 40.359493 40.79061 41.159573 41.46826 41.72213 41.923363 42.073193 42.171955 42.219208 42.213814 42.151012 42.016045 41.802303 41.503674 41.114044 40.631283 40.060383 39.432083 38.734035 37.940502 37.052578 36.067135 34.98505 33.809776 32.545532 31.197866 29.774294 28.284851 26.742464 25.163328 23.566717 21.974754 20.411829 18.885736 17.385178 15.919942 14.499694 13.133702 11.830739 10.599045 9.446268
4.468155 4.710796 4.961083 5.217813 5.479819 5.745997 6.015282 6.298446 6.606462 6.937627 7.290294 7.662867 8.05381 8.461643 8.884941 9.322333 9.772508 10.234202 10.706206 11.187358 11.676552 12.172721 12.674843 13.181933 13.693047 14.207281 14.723748 15.241602 15.760027 16.278221 16.795416 17.310863 17.823824 18.333593 18.839487 19.340837 19.836996 20.327343 20.811277 21.288233 21.757654 22.219027 22.671862 23.115707 23.550146 23.97478 24.389275 24.791698 25.175209 25.53839 25.880516 26.20093 26.499033 26.774302 27.026321 27.256428 27.466244 27.655792 27.825188 27.97465 28.104488 28.215088 28.306911 28.380503 28.436478 28.475489 28.497099 28.491314 28.455746 28.390509 28.295732 28.171627 28.018452 27.836535 27.62625 27.388073 27.13211 26.894617 26.677193 26.483248 26.312952 26.163172 26.030766 25.912537 25.805325 25.706007 25.611492 25.53516 25.51489 25.545914 25.621222 25.733896 25.877077 26.043974 26.227867 26.422089 26.620045 26.815208 27.001125 27.183674 27.386969 27.605717 27.833553 28.06463 28.2937 28.516151 28.728077 28.92625 29.108116 29.271711 29.415663 29.543917 29.660355 29.77137 29.928797 30.128578 30.359142 30.619164 30.914701 31.267607 31.67439 32.129368 32.626907 33.161324 33.726944 34.318077 34.929024 35.55414 36.187893 36.824966 37.460304 38.08922 38.70748 39.305977 39.854836 40.339546 40.763138 41.12766 41.433987 41.683647 41.883724 42.03592 42.141033 42.199017 42.209084 42.16979 42.078407 41.921505 41.690758 41.386784 41.006275 40.544353 39.997295 39.362904 38.66192 37.875065 36.997272 36.029526 34.974735 33.83009 32.591995 31.265316 29.856995 28.376606 26.836746 25.253328 23.645485 22.035269 20.447062 18.906693 17.42645 15.983386 14.58462 13.239336 11.956233 10.743488 9.608708
4.176147 4.418855 4.669644 4.927304 5.190681 5.458662 5.730908 6.023072 6.340593 6.681765 7.044934 7.428501 7.830924 8.250714 8.686438 9.136716 9.600224 10.075686 10.561879 11.057631 11.561815 12.073349 12.591189 13.114336 13.641826 14.172731 14.706152 15.241222 15.777102 16.31297 16.848043 17.38155 17.912746 18.440903 18.96532 19.485323 20.000235 20.50944 21.012312 21.508268 21.996742 22.477207 22.949152 23.412094 23.865604 24.309269 24.740944 25.154144 25.547554 25.920364 26.271824 26.601244 26.907997 27.19157 27.45335 27.69457 27.915154 28.11511 28.29458 28.453783 28.593006 28.712662 28.813211 28.895205 28.959253 29.00601 29.031048 29.026041 28.990898 28.925701 28.830593 28.705757 28.551445 28.367954 28.155685 27.91507 27.648447 27.390306 27.158133 26.952185 26.769447 26.606876 26.46138 26.329828 26.209118 26.09616 25.992147 25.939896 25.945713 26.00253 26.103376 26.241331 26.409569 26.601288 26.809813 27.028503 27.250778 27.470154 27.680206 27.88294 28.10461 28.341892 28.588509 28.838654 29.087069 29.329117 29.560791 29.77871 29.98013 30.162899 30.325436 30.466679 30.588491 30.696629 30.820816 30.989157 31.186445 31.425438 31.725962 32.082695 32.490078 32.94269 33.43514 33.96199 34.517822 35.097107 35.694305 36.303883 36.920357 37.53842 38.15299 38.755466 39.323116 39.853283 40.32942 40.7462 41.106564 41.411823 41.662117 41.858616 42.009922 42.11735 42.181374 42.20168 42.177223 42.106365 41.989662 41.822773 41.595654 41.303154 40.93976 40.499966 39.978813 39.3645 38.675247 37.896084 37.01985 36.05504 35.00282 33.86478 32.64814 31.3431 29.951157 28.481485 26.94642 25.36164 23.746145 22.121887 20.513231 18.946016 17.446583 16.025707 14.65193 13.330811 12.070964 10.880506 9.766987
3.886924 4.129248 4.38009 4.638248 4.902565 5.171932 5.448146 5.748572 6.074868 6.425325 6.798287 7.192148 7.605362 8.03643 8.483912 8.946418 9.42261 9.911201 10.41096 10.920691 11.439258 11.965556 12.498534 13.037165 13.580472 14.127507 14.677353 15.229122 15.781955 16.335022 16.887512 17.438639 17.987644 18.533787 19.076351 19.614634 20.147964 20.6757 21.197205 21.71188 22.219147 22.718456 23.209286 23.691126 24.163517 24.623833 25.06612 25.489262 25.89238 26.274649 26.635288 26.973589 27.288939 27.582832 27.856045 28.108381 28.339758 28.550177 28.739784 28.90878 29.057493 29.186335 29.295765 29.386347 29.458687 29.512663 29.539032 29.534895 29.500282 29.43527 29.339983 29.21459 29.059324 28.874483 28.660429 28.417618 28.146748 27.873667 27.628786 27.40963 27.213276 27.036743 26.877 26.73099 26.59567 26.468025 26.374725 26.34634 26.375845 26.456205 26.580446 26.741676 26.933084 27.147923 27.379517 27.621248 27.866585 28.109062 28.34231 28.56468 28.802967 29.05714 29.32097 29.588705 29.85508 30.11541 30.365591 30.602129 30.822105 31.023197 31.203627 31.362175 31.49811 31.611784 31.713737 31.847593 32.02778 32.272346 32.575504 32.931705 33.33564 33.782104 34.26599 34.782116 35.32526 35.89012 36.47131 37.063393 37.660946 38.256157 38.824978 39.36351 39.869446 40.336105 40.748238 41.105404 41.410053 41.662807 41.8631 42.01182 42.118988 42.185577 42.21181 42.19734 42.145924 42.0585 41.933483 41.76559 41.543358 41.261543 40.91458 40.496536 40.001446 39.40327 38.735275 37.993114 37.123627 36.154392 35.097878 33.955406 32.728905 31.430128 30.055088 28.597271 27.068773 25.485115 23.865168 22.230776 20.606236 19.017313 17.49034 16.051197 14.703333 13.409704 12.176401 11.01145 9.922358
3.601256 3.842741 4.093191 4.351405 4.616228 4.886557 5.167481 5.475421 5.809755 6.168768 6.550804 6.954251 7.377557 7.819213 8.27777 8.751833 9.240047 9.741119 10.253798 10.776877 11.309206 11.849665 12.397178 12.950714 13.509266 14.071875 14.637602 15.205542 15.774825 16.34459 16.914022 17.482311 18.048687 18.612389 19.172691 19.728878 20.28026 20.826178 21.365988 21.899075 22.424839 22.942719 23.452166 23.952663 24.44067 24.911243 25.363417 25.79625 26.208862 26.600397 26.970064 27.317242 27.643467 27.949053 28.233685 28.49714 28.739317 28.96023 29.159998 29.338863 29.49715 29.635284 29.753748 29.8531 29.933945 29.992214 30.019842 30.016678 29.982723 29.918041 29.82274 29.696972 29.540955 29.354973 29.139366 28.894714 28.627998 28.348213 28.08955 27.856108 27.64504 27.453453 27.2784 27.116898 26.965961 26.831032 26.759172 26.752249 26.803148 26.904865 27.05045 27.233042 27.445848 27.682148 27.935295 28.19871 28.465887 28.730392 28.985899 29.227869 29.48099 29.750368 30.029821 30.313627 30.596508 30.87376 31.141182 31.39517 31.632668 31.851194 32.048817 32.224125 32.376244 32.50481 32.609936 32.727627 32.912445 33.15857 33.460266 33.812164 34.209156 34.6463 35.118717 35.621468 36.149563 36.69789 37.261223 37.829575 38.38549 38.919674 39.43004 39.91298 40.364937 40.772984 41.129295 41.434433 41.690178 41.896492 42.052143 42.157936 42.22512 42.255013 42.25305 42.21987 42.15457 42.05603 41.92294 41.75242 41.53379 41.261177 40.929115 40.53141 40.052055 39.474117 38.82834 38.112698 37.296383 36.328068 35.260216 34.106564 32.86814 31.54971 30.167307 28.721855 27.201332 25.62095 23.99946 22.358591 20.722494 19.116829 17.56781 16.101233 14.741341 13.477854 12.274235 11.137901 10.076244
3.319956 3.560143 3.809751 4.067578 4.332471 4.60333 4.88946 5.204162 5.545785 5.912618 6.302998 6.715314 7.148 7.599543 8.068485 8.553421 9.052988 9.565875 10.090823 10.626613 11.172071 11.726066 12.28751 12.855347 13.428566 14.006177 14.587231 15.170805 15.756002 16.341963 16.92784 17.51282 18.096104 18.67693 19.254545 19.828226 20.397268 20.961 21.518759 22.069914 22.613855 23.149994 23.677692 24.19216 24.690031 25.170336 25.63209 26.074354 26.496233 26.896832 27.275667 27.634207 27.97232 28.289562 28.585585 28.86014 29.113111 29.344515 29.55448 29.743258 29.911201 30.05874 30.18637 30.294674 30.383312 30.443346 30.472324 30.47023 30.437065 30.372866 30.27773 30.151781 29.995222 29.808304 29.59144 29.351202 29.092056 28.814396 28.540974 28.292248 28.065481 27.857864 27.666533 27.488575 27.321115 27.19627 27.143524 27.155731 27.22582 27.346796 27.511755 27.713856 27.946339 28.202515 28.475761 28.759537 29.047363 29.332844 29.609678 29.871778 30.137941 30.420805 30.714243 31.012558 31.310476 31.603241 31.886602 32.15685 32.410805 32.645855 32.85991 33.05142 33.219364 33.363235 33.497364 33.650646 33.837467 34.08121 34.377857 34.72219 35.1093 35.53445 35.992996 36.480206 36.991238 37.509895 38.02508 38.53477 39.04005 39.52444 39.985176 40.42006 40.822525 41.17901 41.486927 41.746796 41.959652 42.124836 42.240505 42.308167 42.345806 42.354893 42.33513 42.286083 42.207153 42.097527 41.956192 41.78158 41.564987 41.2997 40.98046 40.600975 40.129868 39.571507 38.947666 38.25424 37.482788 36.56622 35.489185 34.316708 33.061184 31.723322 30.313417 28.853333 27.34188 25.766684 24.146345 22.50245 20.858973 19.241371 17.67565 16.187424 14.8008 13.537356 12.366429 11.259763 10.218722
3.043876 3.282307 3.530616 3.78761 4.052135 4.323209 4.614691 4.935391 5.283555 5.657465 6.055456 6.475908 6.917253 7.377974 7.856602 8.351721 8.861956 9.385985 9.922542 10.470383 11.02833 11.595234 12.169987 12.751525 13.338804 13.930841 14.52665 15.1253 15.725881 16.327505 16.929323 17.530497 18.130217 18.727697 19.322186 19.91293 20.499222 21.080362 21.655687 22.224539 22.786299 23.339703 23.879385 24.403416 24.910774 25.400454 25.871479 26.32289 26.753761 27.163864 27.554422 27.92494 28.274862 28.603703 28.911068 29.196693 29.460443 29.70233 29.9225 30.121235 30.298897 30.455948 30.592896 30.71032 30.803223 30.86492 30.89534 30.894432 30.862198 30.798649 30.703857 30.577925 30.421038 30.23343 30.020937 29.788853 29.53747 29.267159 28.983702 28.718811 28.475456 28.250917 28.04243 27.847193 27.670294 27.562103 27.526123 27.55523 27.64237 27.780592 27.963026 28.182848 28.433352 28.70786 28.999788 29.30263 29.609924 29.915325 30.212547 30.495436 30.773388 31.067993 31.373745 31.684969 31.99639 32.303246 32.60121 32.8865 33.15584 33.406487 33.636223 33.84336 34.026756 34.193386 34.380005 34.586246 34.793915 35.037426 35.326378 35.660347 36.035065 36.446007 36.884666 37.33343 37.788746 38.24819 38.711056 39.17695 39.642437 40.08528 40.50373 40.897366 41.25343 41.565727 41.831844 42.052345 42.2275 42.35611 42.44092 42.486046 42.503815 42.494225 42.45724 42.392685 42.300247 42.179443 42.029533 41.84956 41.633358 41.373363 41.064583 40.7008 40.23046 39.689693 39.086548 38.4152 37.67104 36.81442 35.77769 34.585445 33.303947 31.94423 30.507917 29.013266 27.488407 25.920166 24.303543 22.659958 21.013153 19.388313 17.811127 16.306929 14.899604 13.610128 12.447748 11.362882 10.342189
2.773907 3.010119 3.256677 3.512388 3.776103 4.047668 4.34384 4.669782 5.023728 5.403964 5.808822 6.236677 6.685957 7.155136 7.642738 8.147338 8.667549 9.202043 9.749529 10.308763 10.878545 11.457714 12.045146 12.639763 13.240502 13.846364 14.45635 15.069511 15.684919 16.30167 16.918901 17.535763 18.151419 18.765081 19.375965 19.983324 20.586426 21.184553 21.777025 22.363176 22.940256 23.503809 24.052696 24.58588 25.102318 25.60101 26.080956 26.541195 26.981989 27.403978 27.806486 28.188848 28.55048 28.89084 29.209492 29.506144 29.780636 30.032986 30.26336 30.472069 30.659515 30.826178 30.972586 31.097548 31.192398 31.25584 31.287785 31.288197 31.257038 31.194311 31.100054 30.974358 30.81737 30.63378 30.429995 30.206247 29.962807 29.700045 29.418425 29.136658 28.875925 28.633692 28.407284 28.194006 28.020977 27.927101 27.905628 27.949467 28.051613 28.205135 28.403194 28.639019 28.90591 29.197245 29.506474 29.827099 30.152702 30.476965 30.793642 31.096596 31.387203 31.691784 32.00815 32.330654 32.654037 32.973522 33.284748 33.583855 33.867477 34.132786 34.377438 34.59964 34.79986 35.013374 35.25086 35.507046 35.760933 36.01231 36.29989 36.623764 36.967514 37.32895 37.70638 38.0976 38.50061 38.91585 39.340546 39.771072 40.203823 40.612907 40.99593 41.351475 41.66737 41.942173 42.172264 42.3584 42.50165 42.60738 42.67243 42.697372 42.695927 42.66821 42.614372 42.534527 42.428646 42.296513 42.137672 41.95142 41.733948 41.477253 41.176556 40.822197 40.34842 39.822754 39.23843 38.588223 37.865543 37.05476 36.082424 34.905407 33.597103 32.206135 30.743965 29.216898 27.652418 26.079582 24.4692 22.829197 21.18305 19.555576 17.972092 16.457119 15.029272 13.708473 12.513602 11.445556 10.4484
2.51098 2.744512 2.988861 3.24284 3.505301 3.777551 4.07853 4.411198 4.772814 5.160895 5.57325 6.007968 6.463435 6.93832 7.431589 7.942484 8.47052 9.014706 9.572444 10.142397 10.723353 11.314136 11.913608 12.520667 13.134254 13.753337 14.376906 15.003996 15.633662 16.264992 16.897097 17.529112 18.160192 18.789532 19.416334 20.03983 20.659266 21.273926 21.882786 22.48127 23.06723 23.639563 24.197199 24.73909 25.26419 25.771488 26.260075 26.730722 27.183296 27.617067 28.031319 28.42537 28.798576 29.150366 29.480236 29.78785 30.073036 30.335806 30.57638 30.795094 30.992388 31.168762 31.32461 31.452929 31.549763 31.615026 31.648623 31.650486 31.620564 31.558838 31.46532 31.340073 31.186523 31.01213 30.817236 30.602001 30.366703 30.111681 29.83741 29.54673 29.267956 29.007347 28.762363 28.533634 28.371956 28.290112 28.280956 28.337452 28.452602 28.619543 28.831446 29.081593 29.3633 29.669994 29.99514 30.332287 30.675041 31.017117 31.352285 31.674458 31.979578 32.292366 32.617634 32.949776 33.283573 33.614212 33.93733 34.249016 34.54584 34.82488 35.083702 35.320408 35.555973 35.81874 36.10413 36.407238 36.707806 36.981968 37.235912 37.507435 37.798004 38.107113 38.434128 38.781242 39.148384 39.532497 39.9292 40.334244 40.743553 41.128548 41.482826 41.803078 42.085133 42.32759 42.525707 42.684597 42.80925 42.896217 42.94117 42.944954 42.92295 42.87561 42.803448 42.70692 42.5864 42.44217 42.27407 42.08103 41.860737 41.60557 41.31074 40.944107 40.478046 39.96481 39.397068 38.766537 38.06499 37.28498 36.37018 35.257454 33.93367 32.509605 31.01488 29.457666 27.85616 26.246107 24.641886 23.008757 21.367224 19.740988 18.150358 16.618628 15.168756 13.822002 12.59727 11.510616 10.539444
2.256875 2.486452 2.729273 2.987275 3.257989 3.542975 3.858849 4.204886 4.578268 4.976452 5.397191 5.838536 6.298837 6.776752 7.27124 7.781555 8.307225 8.848069 9.404153 9.97579 10.563516 11.165206 11.776066 12.394939 13.020738 13.652422 14.288971 14.929399 15.572745 16.21808 16.8645 17.51113 18.157104 18.801596 19.443802 20.082933 20.718224 21.346739 21.96496 22.571758 23.166016 23.746632 24.312536 24.862667 25.395979 25.91195 26.411297 26.893366 27.357407 27.802675 28.228428 28.633972 29.018608 29.381702 29.722704 30.04121 30.337013 30.610168 30.860914 31.089659 31.296871 31.483088 31.644938 31.775438 31.874317 31.941486 31.976843 31.980305 31.951792 31.891253 31.798677 31.676249 31.53215 31.367167 31.18134 30.974815 30.747847 30.50077 30.23404 29.94822 29.652687 29.373142 29.109022 28.874443 28.722252 28.650242 28.65131 28.718435 28.844683 29.023203 29.247221 29.510036 29.80502 30.125618 30.465332 30.817749 31.176495 31.535322 31.888044 32.22858 32.551006 32.870266 33.202736 33.542873 33.885513 34.225845 34.5595 34.882538 35.191475 35.483334 35.755596 36.013428 36.295994 36.60491 36.9353 37.262646 37.552643 37.807846 38.037018 38.26323 38.514286 38.79183 39.095592 39.42226 39.768272 40.13079 40.506462 40.891205 41.28109 41.646873 41.970486 42.259502 42.511753 42.724586 42.898853 43.041283 43.148544 43.21698 43.242157 43.224762 43.182423 43.115757 43.02542 42.91198 42.775894 42.61746 42.4368 42.23381 42.00757 41.751873 41.461052 41.074486 40.613453 40.110046 39.55659 38.944042 38.262833 37.504345 36.639107 35.589714 34.306026 32.849842 31.317205 29.729332 28.094343 26.444256 24.820683 23.195742 21.555698 19.923786 18.323847 16.779613 15.313818 13.94754 12.699587 11.586016 10.617693
2.022021 2.259261 2.516102 2.788947 3.073446 3.373148 3.703585 4.062668 4.447501 4.855475 5.284284 5.731932 6.196737 6.677336 7.172678 7.682017 8.204915 8.741212 9.291026 9.854719 10.432908 11.026416 11.636271 12.26334 12.900716 13.544377 14.19329 14.846447 15.502879 16.16164 16.821804 17.48248 18.142801 18.80191 19.458984 20.11217 20.757559 21.39382 22.019794 22.634361 23.236385 23.824768 24.39843 24.956331 25.498686 26.02541 26.535715 27.028828 27.50398 27.960424 28.397398 28.814178 29.210035 29.584286 29.93631 30.265617 30.57197 30.855444 31.116356 31.35516 31.572392 31.767046 31.931356 32.064075 32.165085 32.234272 32.271523 32.276722 32.249786 32.190624 32.100304 31.987213 31.853004 31.697594 31.521019 31.3234 31.104958 30.866024 30.607046 30.328596 30.031326 29.732414 29.448708 29.216063 29.07116 29.006863 29.016104 29.091911 29.227373 29.415703 29.650143 29.924034 30.230787 30.56386 30.916813 31.283241 31.656836 32.031353 32.400654 32.758694 33.09959 33.426327 33.76432 34.11085 34.460793 34.809364 35.15222 35.4854 35.8054 36.109177 36.394257 36.689816 37.016422 37.361404 37.681114 37.975937 38.24121 38.482994 38.7121 38.933453 39.167683 39.431164 39.720486 40.032303 40.363243 40.709927 41.06892 41.43677 41.810455 42.158203 42.454124 42.716618 42.943123 43.1328 43.292076 43.41837 43.50833 43.558323 43.563828 43.52483 43.46199 43.37614 43.268105 43.138584 42.988113 42.816986 42.62525 42.41272 42.178654 41.91761 41.624924 41.207764 40.74875 40.252834 39.711548 39.115307 38.453495 37.715797 36.887585 35.895775 34.682 33.219765 31.65113 30.02608 28.360422 26.670614 24.99823 23.367392 21.727314 20.093397 18.48915 16.937954 15.462198 14.082679 12.818011 11.684132 10.694019
1.846575 2.098283 2.368474 2.653569 2.950209 3.264609 3.609242 3.981015 4.376956 4.794378 5.230919 5.684529 6.153489 6.636407 7.132224 7.640203 8.159918 8.691238 9.234329 9.789614 10.357769 10.939705 11.536536 12.149555 12.780234 13.430027 14.090672 14.755948 15.424858 16.096443 16.769768 17.44392 18.118011 18.790459 19.457626 20.118073 20.770588 21.414017 22.047186 22.668951 23.278193 23.873804 24.455162 25.022552 25.575224 26.11237 26.633198 27.136932 27.622791 28.090023 28.537868 28.965574 29.372393 29.757607 30.120504 30.460516 30.777317 31.071053 31.342134 31.591082 31.818066 32.016296 32.18297 32.31797 32.421192 32.492496 32.531765 32.538868 32.51367 32.45642 32.374825 32.272026 32.147854 32.002205 31.835066 31.646538 31.436815 31.206217 30.955202 30.68434 30.394299 30.08652 29.785906 29.557907 29.418154 29.359516 29.374968 29.457567 29.600452 29.796862 30.04008 30.323477 30.640497 30.984652 31.349522 31.728735 32.11602 32.505177 32.8901 33.26478 33.623386 33.96174 34.303635 34.654984 35.010715 35.36614 35.716885 36.059036 36.389072 36.703926 37.010124 37.347275 37.693844 38.005493 38.291462 38.566715 38.825794 39.069244 39.304634 39.53964 39.776825 40.02704 40.303055 40.601814 40.920074 41.25456 41.601925 41.958794 42.318626 42.653538 42.927967 43.168938 43.373894 43.549683 43.694523 43.80494 43.877735 43.90934 43.895157 43.83376 43.749916 43.6447 43.519157 43.374146 43.21026 43.027767 42.826626 42.606472 42.366547 42.102146 41.78824 41.350563 40.886246 40.390533 39.857018 39.2756 38.632286 37.91531 37.114376 36.174934 35.02335 33.610287 32.004864 30.334522 28.628412 26.897366 25.177757 23.516565 21.880157 20.248608 18.645 17.092287 15.612419 14.225809 12.950771 11.803053 10.79555
